6.283400880000000370e+02,6.225101929999999584e+02,6.162479859999999690e+02,6.099957279999999855e+02,6.049683230000000549e+02,6.025023800000000165e+02,6.008590090000000146e+02,6.005133059999999432e+02,6.000468750000000000e+02,5.992374879999999848e+02,5.990015260000000126e+02,5.970640260000000126e+02,5.945601199999999835e+02,5.919492189999999709e+02,5.873613279999999577e+02,5.809210209999999961e+02,5.749343870000000152e+02,5.683325810000000047e+02,5.599038699999999835e+02,5.509655149999999821e+02,5.418900760000000218e+02,5.330440059999999676e+02,5.237877200000000357e+02,5.135657959999999775e+02,5.031242980000000102e+02,4.928273009999999772e+02,4.802211909999999762e+02,4.685255129999999895e+02,4.563674930000000245e+02,4.428947140000000218e+02,4.290591130000000248e+02,4.162804869999999937e+02,4.112652889999999957e+02,4.131202999999999861e+02,4.135954899999999839e+02,4.136568909999999732e+02,4.119411929999999984e+02,4.102190860000000043e+02,4.040466920000000073e+02,3.958410030000000006e+02,4.034046020000000112e+02,4.172562869999999862e+02,4.338305050000000165e+02,4.489841000000000122e+02,4.629248959999999897e+02,4.765577089999999885e+02,4.898988039999999842e+02,5.018139949999999772e+02,5.122623290000000225e+02,5.205473019999999451e+02,5.285488890000000310e+02,5.360471800000000258e+02,5.439337769999999637e+02,5.520933230000000549e+02,5.587738040000000410e+02,5.630562129999999570e+02,5.646353149999999914e+02,5.661403199999999742e+02,5.691096800000000258e+02,5.719677729999999656e+02,5.727589719999999716e+02,5.735488279999999577e+02,5.762036739999999782e+02,5.793237299999999550e+02,5.826002809999999954e+02,5.858812259999999696e+02,5.896666870000000245e+02,5.947849730000000363e+02,5.991411130000000185e+02,6.031582029999999577e+02,6.082125849999999900e+02,6.137689820000000509e+02,6.183292850000000271e+02,6.222141719999999623e+02,6.255001829999999927e+02,6.282243039999999610e+02,6.296105959999999868e+02,6.298566280000000006e+02,6.290894170000000258e+02,6.276002809999999954e+02,6.256572879999999941e+02,6.228309940000000324e+02,6.194617919999999458e+02,6.157946170000000166e+02,6.107672730000000456e+02,6.051867069999999558e+02,5.982592769999999973e+02,5.903994750000000522e+02,5.840180050000000165e+02,5.787130740000000060e+02,5.731964719999999716e+02,5.699523930000000291e+02,5.663494869999999537e+02,5.621937870000000430e+02,5.576517939999999953e+02,5.534387819999999465e+02,5.512863160000000562e+02,5.497994999999999663e+02,5.481005860000000212e+02,5.469279790000000503e+02,5.453170169999999644e+02,5.434362180000000535e+02,5.418676759999999604e+02,5.412031250000000000e+02,5.401325070000000323e+02,5.383698120000000245e+02,5.365449830000000020e+02,5.341887209999999868e+02,5.297620239999999967e+02,5.251220090000000482e+02,5.194382930000000442e+02,5.127100219999999808e+02,5.056321110000000090e+02,4.967475890000000049e+02,4.871848140000000171e+02,4.773205869999999891e+02,4.658356019999999944e+02,4.541968079999999759e+02,4.432466130000000248e+02,4.304169009999999957e+02,4.176282039999999824e+02,4.058258060000000000e+02,3.931086119999999937e+02,3.815044859999999858e+02,3.690816040000000271e+02,3.560028990000000135e+02,3.437211909999999762e+02,3.307344969999999762e+02,3.169248049999999921e+02,3.031241150000000175e+02,2.880083920000000148e+02,2.753569029999999884e+02,2.701084900000000175e+02,2.684782099999999900e+02,2.713912050000000136e+02,2.774403990000000135e+02,2.836925049999999828e+02,2.923293150000000082e+02,3.033010859999999980e+02,3.119014890000000264e+02,3.191402889999999957e+02,3.252296140000000264e+02,3.301177059999999983e+02,3.326677859999999782e+02,3.339649959999999851e+02,3.335994870000000105e+02,3.317078859999999736e+02,3.285671080000000188e+02,3.237099910000000023e+02,3.174437869999999862e+02,3.102402040000000056e+02,3.038035889999999881e+02,2.981643980000000056e+02,2.925490110000000072e+02,2.853346859999999765e+02,2.778290099999999825e+02,2.708947140000000218e+02,2.650622859999999719e+02,2.607861940000000232e+02,2.554125980000000027e+02,2.493043059999999969e+02,2.449958949999999902e+02,2.418865049999999997e+02,2.379120029999999986e+02,2.369969940000000008e+02,2.369792019999999866e+02,2.370222929999999906e+02,2.373516999999999939e+02,2.383168029999999931e+02,2.396181949999999858e+02,2.415448000000000093e+02,2.451488950000000102e+02,2.503278050000000121e+02,2.558428040000000010e+02,2.642090150000000222e+02,2.717210999999999785e+02,2.783727109999999811e+02,2.912084960000000251e+02,3.044632869999999798e+02,3.169288020000000188e+02,3.301859130000000278e+02,3.421642150000000129e+02,3.545368960000000129e+02,3.669364929999999845e+02,3.779454959999999915e+02,3.895484920000000102e+02,4.022297970000000191e+02,4.130086059999999861e+02,4.232018130000000156e+02,4.352977910000000179e+02,4.453037110000000212e+02,4.556207890000000020e+02,4.660885010000000079e+02,4.757590030000000070e+02,4.857383120000000076e+02,4.952609860000000026e+02,5.044363099999999918e+02
6.205402219999999716e+02,6.134970700000000079e+02,6.066873170000000073e+02,5.994298710000000483e+02,5.936201780000000099e+02,5.908079219999999623e+02,5.893989259999999604e+02,5.894320069999999987e+02,5.899423829999999498e+02,5.891599730000000363e+02,5.890526730000000271e+02,5.876605829999999742e+02,5.854728999999999814e+02,5.837230829999999742e+02,5.801519170000000258e+02,5.743557130000000370e+02,5.682366940000000568e+02,5.621193240000000060e+02,5.541881710000000112e+02,5.455642699999999650e+02,5.370629269999999451e+02,5.283853759999999511e+02,5.194937129999999570e+02,5.095823060000000169e+02,4.992210999999999785e+02,4.893168949999999882e+02,4.772334900000000175e+02,4.658093870000000152e+02,4.551492000000000075e+02,4.428976139999999759e+02,4.296297000000000139e+02,4.170344850000000179e+02,4.066948849999999993e+02,4.052047119999999722e+02,4.052156979999999749e+02,4.053186039999999934e+02,4.040729979999999841e+02,3.999642939999999953e+02,3.946370850000000132e+02,3.930693049999999857e+02,4.043428959999999961e+02,4.175512079999999742e+02,4.329895020000000159e+02,4.464591980000000149e+02,4.602749019999999973e+02,4.736476139999999759e+02,4.857681880000000092e+02,4.965007019999999898e+02,5.061329959999999915e+02,5.144934080000000449e+02,5.212473750000000337e+02,5.301063229999999749e+02,5.382197879999999941e+02,5.465908809999999676e+02,5.522055050000000165e+02,5.550477290000000039e+02,5.557553709999999683e+02,5.567548219999999901e+02,5.595059810000000198e+02,5.616091920000000073e+02,5.618339230000000271e+02,5.627241209999999683e+02,5.658375849999999900e+02,5.687985840000000053e+02,5.720864870000000337e+02,5.756890869999999722e+02,5.798342290000000503e+02,5.854349979999999505e+02,5.906035160000000133e+02,5.955684810000000198e+02,6.012069089999999960e+02,6.069193119999999908e+02,6.117357180000000199e+02,6.158856200000000172e+02,6.194763179999999920e+02,6.221475830000000542e+02,6.236024169999999458e+02,6.239019779999999855e+02,6.236309199999999464e+02,6.221840210000000297e+02,6.201077880000000278e+02,6.179194949999999835e+02,6.146815189999999802e+02,6.112996829999999591e+02,6.059102779999999484e+02,5.994893799999999828e+02,5.917072749999999814e+02,5.834843750000000000e+02,5.763320919999999887e+02,5.701577150000000529e+02,5.647675779999999577e+02,5.615200810000000047e+02,5.573441159999999854e+02,5.526239010000000462e+02,5.475681150000000343e+02,5.430457149999999729e+02,5.412869259999999940e+02,5.405676270000000159e+02,5.394265749999999571e+02,5.378596800000000258e+02,5.358316039999999703e+02,5.341071170000000166e+02,5.325460209999999961e+02,5.315966190000000324e+02,5.307656859999999597e+02,5.293073729999999841e+02,5.286956790000000410e+02,5.275980829999999742e+02,5.247470090000000482e+02,5.213095700000000079e+02,5.174204710000000205e+02,5.112719119999999862e+02,5.047908019999999851e+02,4.968761900000000082e+02,4.882226870000000076e+02,4.787284849999999778e+02,4.682013850000000161e+02,4.567780149999999821e+02,4.458902889999999957e+02,4.337271119999999769e+02,4.211593930000000228e+02,4.093931880000000092e+02,3.967018130000000156e+02,3.840263059999999768e+02,3.728187869999999862e+02,3.597633969999999977e+02,3.464646000000000186e+02,3.345223080000000095e+02,3.211929020000000037e+02,3.072038880000000063e+02,2.933995059999999739e+02,2.788830869999999891e+02,2.695563050000000089e+02,2.670458070000000248e+02,2.686246949999999742e+02,2.736163020000000188e+02,2.794844969999999762e+02,2.877247009999999818e+02,2.974082950000000096e+02,3.053120119999999815e+02,3.126133120000000076e+02,3.184870000000000232e+02,3.220999150000000100e+02,3.244389949999999772e+02,3.264671020000000112e+02,3.267752990000000182e+02,3.250201109999999858e+02,3.222732849999999871e+02,3.177341000000000122e+02,3.112175899999999729e+02,3.045729059999999890e+02,2.991086119999999937e+02,2.928362119999999891e+02,2.866037900000000036e+02,2.796606140000000096e+02,2.723590090000000146e+02,2.654299930000000245e+02,2.609010930000000030e+02,2.563186039999999934e+02,2.498014980000000094e+02,2.450104980000000126e+02,2.413574069999999949e+02,2.384427949999999896e+02,2.354423979999999972e+02,2.357817990000000066e+02,2.362825929999999914e+02,2.371508029999999962e+02,2.377252959999999860e+02,2.383983000000000061e+02,2.392893980000000056e+02,2.410272060000000067e+02,2.460346979999999917e+02,2.549017029999999977e+02,2.650899959999999851e+02,2.741998899999999821e+02,2.834678040000000010e+02,2.919265139999999974e+02,3.008786929999999984e+02,3.119435119999999984e+02,3.241568909999999732e+02,3.357867130000000202e+02,3.478248899999999821e+02,3.600552979999999934e+02,3.720563960000000066e+02,3.839660949999999957e+02,3.962273860000000241e+02,4.082710880000000202e+02,4.196583860000000072e+02,4.300780940000000214e+02,4.420071110000000090e+02,4.527782900000000268e+02,4.626232909999999947e+02,4.733349000000000046e+02,4.836091920000000073e+02,4.931983950000000050e+02,5.033039860000000090e+02,5.126804809999999861e+02
6.128137819999999465e+02,6.049995730000000549e+02,5.968037110000000212e+02,5.878770140000000310e+02,5.806655269999999973e+02,5.778858030000000099e+02,5.778073729999999841e+02,5.786478879999999663e+02,5.795626220000000330e+02,5.789498290000000225e+02,5.788134159999999611e+02,5.781992800000000443e+02,5.763662719999999808e+02,5.748681030000000192e+02,5.722825930000000199e+02,5.676920780000000377e+02,5.616143799999999828e+02,5.553483889999999974e+02,5.481232300000000350e+02,5.400217900000000100e+02,5.321671139999999696e+02,5.237260740000000396e+02,5.146914060000000291e+02,5.052474980000000073e+02,4.950180970000000116e+02,4.849591980000000149e+02,4.738122859999999719e+02,4.626758120000000076e+02,4.524584960000000251e+02,4.415025939999999878e+02,4.290379029999999716e+02,4.166760859999999980e+02,4.036719059999999786e+02,3.987883909999999901e+02,3.974325870000000123e+02,3.965443119999999908e+02,3.963764039999999795e+02,3.903817139999999881e+02,3.868637079999999742e+02,3.928599849999999947e+02,4.055392150000000129e+02,4.181960139999999910e+02,4.325046080000000188e+02,4.449424129999999877e+02,4.577031860000000165e+02,4.702272029999999745e+02,4.808919980000000010e+02,4.900422060000000215e+02,4.986766049999999950e+02,5.072083129999999755e+02,5.138602290000000039e+02,5.245253300000000536e+02,5.325560299999999643e+02,5.398491209999999683e+02,5.440086059999999861e+02,5.451984250000000429e+02,5.460036010000000033e+02,5.468383179999999584e+02,5.490108030000000099e+02,5.501740109999999504e+02,5.506043700000000172e+02,5.517128300000000536e+02,5.553386229999999841e+02,5.581508790000000317e+02,5.611873779999999670e+02,5.649951780000000099e+02,5.695404049999999643e+02,5.755985719999999901e+02,5.814956049999999550e+02,5.877758179999999584e+02,5.937382199999999557e+02,5.996265869999999722e+02,6.047907099999999900e+02,6.091887819999999465e+02,6.129578860000000304e+02,6.157885129999999663e+02,6.175139769999999544e+02,6.180305180000000291e+02,6.178701780000000099e+02,6.165642699999999650e+02,6.145131840000000238e+02,6.131998290000000225e+02,6.104354250000000093e+02,6.066179809999999861e+02,6.010084229999999934e+02,5.936781009999999696e+02,5.844262079999999742e+02,5.760203860000000304e+02,5.684921880000000556e+02,5.612744139999999788e+02,5.564815059999999676e+02,5.520197140000000218e+02,5.474691159999999854e+02,5.431348880000000463e+02,5.379597169999999551e+02,5.326779790000000503e+02,5.305062259999999696e+02,5.303828130000000556e+02,5.298392939999999953e+02,5.283226929999999584e+02,5.260319819999999709e+02,5.245261839999999438e+02,5.231140749999999571e+02,5.220264280000000099e+02,5.207720950000000357e+02,5.197401730000000271e+02,5.194354859999999690e+02,5.186751709999999775e+02,5.175422969999999623e+02,5.162791750000000093e+02,5.136527099999999564e+02,5.085244139999999788e+02,5.026079100000000039e+02,4.957452089999999885e+02,4.886781920000000241e+02,4.800900879999999802e+02,4.704226990000000228e+02,4.589786990000000060e+02,4.476650089999999977e+02,4.363135990000000106e+02,4.246817019999999729e+02,4.118919980000000010e+02,3.997690119999999752e+02,3.875202939999999785e+02,3.757427059999999983e+02,3.635315860000000043e+02,3.503337099999999964e+02,3.374967040000000225e+02,3.252538149999999746e+02,3.113290099999999825e+02,2.972882999999999925e+02,2.836983950000000050e+02,2.723793949999999882e+02,2.663818049999999857e+02,2.660816960000000222e+02,2.702578129999999987e+02,2.754039000000000215e+02,2.824154050000000211e+02,2.913508909999999901e+02,2.990115969999999948e+02,3.056581120000000169e+02,3.114284059999999954e+02,3.142724000000000046e+02,3.159523009999999772e+02,3.184895020000000159e+02,3.196690060000000244e+02,3.187580869999999891e+02,3.162148129999999924e+02,3.114682010000000218e+02,3.056126100000000179e+02,3.001090090000000146e+02,2.943503109999999765e+02,2.876560969999999884e+02,2.807007140000000049e+02,2.739046020000000112e+02,2.673066099999999778e+02,2.608317870000000198e+02,2.563044130000000109e+02,2.510128019999999935e+02,2.440260930000000030e+02,2.399925990000000127e+02,2.370971069999999941e+02,2.360756989999999860e+02,2.347030029999999954e+02,2.355216059999999914e+02,2.362138060000000053e+02,2.370756069999999909e+02,2.377051999999999907e+02,2.383329009999999926e+02,2.391324009999999873e+02,2.421905059999999992e+02,2.520314940000000092e+02,2.627060849999999732e+02,2.747124939999999924e+02,2.850173950000000218e+02,2.947963869999999815e+02,3.040332950000000096e+02,3.123938899999999990e+02,3.217275089999999977e+02,3.325176999999999907e+02,3.429755860000000212e+02,3.542843020000000251e+02,3.660653080000000159e+02,3.775368960000000129e+02,3.894920960000000036e+02,4.020867920000000026e+02,4.141058039999999778e+02,4.258915099999999825e+02,4.369465030000000070e+02,4.482633969999999977e+02,4.596929020000000037e+02,4.699642029999999977e+02,4.801672970000000191e+02,4.909270940000000110e+02,5.005274049999999875e+02,5.103955080000000066e+02,5.198577269999999544e+02
6.045795900000000529e+02,5.965034180000000106e+02,5.867631840000000238e+02,5.751530760000000555e+02,5.649149780000000192e+02,5.633317260000000033e+02,5.653239750000000186e+02,5.672528079999999591e+02,5.684481200000000172e+02,5.681140749999999571e+02,5.679031979999999749e+02,5.681475830000000542e+02,5.668422239999999874e+02,5.653002930000000106e+02,5.636132199999999557e+02,5.604370730000000549e+02,5.547562259999999696e+02,5.481110230000000456e+02,5.415537719999999808e+02,5.342224119999999630e+02,5.270343020000000251e+02,5.188983759999999847e+02,5.094245910000000208e+02,5.004985050000000228e+02,4.905169980000000010e+02,4.799240110000000072e+02,4.698522950000000264e+02,4.592749939999999924e+02,4.484930110000000241e+02,4.386292109999999980e+02,4.272055970000000116e+02,4.145344850000000179e+02,4.021077880000000278e+02,3.940314940000000092e+02,3.901936039999999934e+02,3.872401120000000105e+02,3.889256899999999746e+02,3.826693119999999908e+02,3.815997919999999795e+02,3.932459109999999782e+02,4.072735900000000129e+02,4.196560969999999884e+02,4.321755979999999795e+02,4.442296140000000264e+02,4.547026060000000030e+02,4.650578919999999812e+02,4.744711909999999762e+02,4.816458129999999755e+02,4.883840940000000046e+02,4.966242980000000102e+02,5.098222049999999967e+02,5.192761839999999438e+02,5.265739750000000186e+02,5.308585819999999558e+02,5.336203000000000429e+02,5.345518190000000232e+02,5.359373779999999670e+02,5.368593140000000403e+02,5.375964969999999994e+02,5.384080199999999650e+02,5.396730959999999868e+02,5.409567260000000033e+02,5.434799799999999550e+02,5.462100219999999808e+02,5.491939700000000357e+02,5.544437870000000430e+02,5.599483030000000099e+02,5.659630130000000463e+02,5.719943240000000060e+02,5.799468990000000304e+02,5.864174799999999550e+02,5.922266240000000153e+02,5.976710209999999961e+02,6.020581049999999550e+02,6.060844730000000027e+02,6.094182130000000370e+02,6.114904790000000503e+02,6.125313109999999597e+02,6.126746829999999591e+02,6.118524169999999458e+02,6.102653199999999742e+02,6.082448729999999841e+02,6.058297730000000456e+02,6.015277710000000297e+02,5.949155879999999570e+02,5.870524289999999610e+02,5.774395140000000310e+02,5.687279049999999643e+02,5.620913699999999835e+02,5.550012209999999868e+02,5.491137700000000450e+02,5.437064209999999775e+02,5.386165770000000066e+02,5.334121699999999464e+02,5.275587769999999637e+02,5.221815800000000536e+02,5.195463869999999815e+02,5.198292239999999538e+02,5.192510989999999538e+02,5.171110840000000053e+02,5.149724119999999630e+02,5.145056150000000343e+02,5.132169189999999617e+02,5.121663210000000390e+02,5.108615110000000072e+02,5.100361020000000281e+02,5.101813960000000066e+02,5.098648989999999799e+02,5.100740049999999997e+02,5.101723020000000020e+02,5.089078059999999937e+02,5.050997919999999795e+02,5.004660949999999957e+02,4.942348020000000020e+02,4.883870850000000132e+02,4.816776120000000105e+02,4.726503910000000133e+02,4.606008909999999901e+02,4.494865110000000072e+02,4.383757929999999874e+02,4.272025150000000053e+02,4.148182980000000271e+02,4.025726010000000201e+02,3.905725100000000225e+02,3.787345890000000281e+02,3.667251890000000003e+02,3.540252990000000182e+02,3.409865110000000072e+02,3.285721130000000016e+02,3.154259030000000052e+02,3.018822020000000066e+02,2.888481140000000096e+02,2.763746029999999791e+02,2.670730899999999792e+02,2.640794980000000010e+02,2.667095029999999838e+02,2.712189940000000092e+02,2.772457890000000020e+02,2.849408869999999752e+02,2.923561100000000010e+02,2.989541929999999752e+02,3.042580869999999891e+02,3.065101930000000152e+02,3.077442930000000274e+02,3.106054990000000089e+02,3.128041989999999828e+02,3.127268070000000080e+02,3.102601930000000152e+02,3.053581849999999918e+02,3.002344969999999762e+02,2.956647950000000264e+02,2.895405880000000138e+02,2.823948970000000145e+02,2.751827089999999885e+02,2.686546940000000063e+02,2.625437929999999938e+02,2.565133969999999977e+02,2.506716000000000122e+02,2.441177979999999934e+02,2.382091979999999865e+02,2.356376040000000103e+02,2.339145969999999863e+02,2.346741940000000000e+02,2.347557979999999986e+02,2.355222019999999929e+02,2.363401029999999992e+02,2.370218959999999981e+02,2.375267029999999977e+02,2.382637939999999901e+02,2.396907040000000109e+02,2.457355039999999917e+02,2.609442139999999881e+02,2.724096979999999917e+02,2.844383849999999825e+02,2.958646850000000086e+02,3.056406860000000165e+02,3.149039920000000166e+02,3.247994080000000281e+02,3.332178959999999961e+02,3.420137020000000234e+02,3.517289119999999798e+02,3.617997129999999970e+02,3.725430910000000040e+02,3.834154970000000162e+02,3.946578059999999937e+02,4.072160030000000006e+02,4.199281920000000241e+02,4.318157039999999824e+02,4.437601930000000152e+02,4.544407039999999824e+02,4.661011050000000182e+02,4.775718079999999759e+02,4.869005129999999895e+02,4.976429140000000189e+02,5.077463070000000016e+02,5.163259890000000496e+02,5.254932250000000522e+02
5.953333740000000489e+02,5.876771850000000086e+02,5.767302859999999782e+02,5.608483280000000377e+02,5.445728149999999914e+02,5.463181150000000343e+02,5.508754269999999451e+02,5.539672239999999874e+02,5.557363279999999577e+02,5.557340699999999742e+02,5.554796139999999696e+02,5.563961789999999610e+02,5.559010009999999511e+02,5.546760860000000548e+02,5.535559080000000449e+02,5.510725710000000390e+02,5.467122190000000046e+02,5.405205079999999498e+02,5.338690800000000536e+02,5.276494750000000522e+02,5.207656250000000000e+02,5.128859250000000429e+02,5.041525879999999802e+02,4.949159849999999778e+02,4.852243960000000129e+02,4.751174930000000245e+02,4.649682920000000195e+02,4.551294859999999858e+02,4.447603149999999914e+02,4.340349120000000198e+02,4.236406860000000165e+02,4.121495970000000284e+02,3.997439880000000016e+02,3.929157099999999900e+02,3.883435969999999884e+02,3.825385130000000231e+02,3.804045100000000161e+02,3.760950930000000199e+02,3.800104059999999890e+02,3.930523989999999799e+02,4.057228089999999838e+02,4.175162050000000136e+02,4.286387020000000234e+02,4.383132929999999874e+02,4.480050049999999828e+02,4.567518919999999980e+02,4.649490969999999948e+02,4.716094059999999786e+02,4.828193049999999857e+02,4.931003109999999765e+02,5.047937929999999938e+02,5.134017939999999953e+02,5.187930300000000443e+02,5.213381960000000390e+02,5.231143190000000232e+02,5.243577880000000278e+02,5.247642210000000205e+02,5.254390260000000126e+02,5.257764280000000099e+02,5.261137700000000450e+02,5.271298829999999498e+02,5.283455810000000383e+02,5.303212280000000192e+02,5.331558230000000549e+02,5.367941889999999603e+02,5.425947270000000344e+02,5.489987180000000535e+02,5.556541140000000496e+02,5.627288210000000390e+02,5.706043089999999438e+02,5.780842900000000100e+02,5.844688720000000330e+02,5.900396120000000337e+02,5.948538210000000390e+02,5.992133179999999584e+02,6.027102049999999736e+02,6.050325930000000199e+02,6.065435790000000225e+02,6.071469730000000027e+02,6.068306880000000092e+02,6.050042110000000548e+02,6.025098880000000463e+02,5.998364259999999604e+02,5.952550049999999828e+02,5.879453740000000153e+02,5.795571899999999914e+02,5.705764769999999544e+02,5.622249759999999696e+02,5.555930789999999888e+02,5.487227779999999484e+02,5.418621219999999994e+02,5.352050779999999577e+02,5.293328860000000304e+02,5.231962889999999788e+02,5.168906250000000000e+02,5.114479059999999890e+02,5.083794859999999858e+02,5.082242130000000202e+02,5.074880979999999795e+02,5.048594059999999786e+02,5.031145940000000110e+02,5.031850890000000049e+02,5.022308039999999778e+02,5.014645080000000235e+02,5.005105899999999792e+02,4.998811039999999934e+02,5.004407959999999775e+02,5.007750849999999900e+02,5.020217900000000100e+02,5.030627140000000281e+02,5.031781010000000265e+02,5.010584109999999782e+02,4.981499939999999924e+02,4.926007079999999974e+02,4.874107060000000047e+02,4.826224980000000073e+02,4.741633909999999901e+02,4.614659120000000030e+02,4.510327149999999961e+02,4.401530149999999821e+02,4.290541079999999852e+02,4.176138920000000212e+02,4.052279970000000162e+02,3.932824100000000271e+02,3.816434019999999805e+02,3.695860900000000129e+02,3.575192870000000198e+02,3.448244020000000205e+02,3.316827089999999885e+02,3.195172119999999722e+02,3.070462949999999864e+02,2.943055110000000241e+02,2.813864140000000020e+02,2.693009950000000003e+02,2.626621089999999867e+02,2.630354919999999765e+02,2.670982970000000023e+02,2.723345029999999838e+02,2.782196959999999990e+02,2.852474060000000122e+02,2.924592900000000100e+02,2.969837949999999864e+02,2.988492130000000202e+02,3.001207890000000020e+02,3.030903930000000059e+02,3.063465879999999970e+02,3.068464050000000043e+02,3.043810119999999984e+02,2.995870970000000284e+02,2.949317019999999729e+02,2.907161869999999908e+02,2.847059019999999805e+02,2.769453129999999987e+02,2.703074040000000196e+02,2.643302919999999858e+02,2.580473020000000020e+02,2.521222989999999982e+02,2.433359989999999868e+02,2.347108000000000061e+02,2.324824979999999925e+02,2.333894040000000132e+02,2.337238010000000088e+02,2.343592989999999929e+02,2.347821959999999990e+02,2.350045929999999998e+02,2.361800990000000127e+02,2.372989959999999883e+02,2.375068050000000142e+02,2.384024960000000135e+02,2.421322940000000017e+02,2.534378049999999973e+02,2.689731140000000096e+02,2.819562990000000013e+02,2.938945009999999911e+02,3.050458070000000248e+02,3.163652950000000033e+02,3.257095029999999838e+02,3.357419130000000109e+02,3.447143859999999904e+02,3.531951900000000251e+02,3.622445979999999963e+02,3.715697020000000066e+02,3.796606140000000096e+02,3.900210880000000202e+02,4.011343079999999759e+02,4.133425899999999729e+02,4.261506039999999871e+02,4.383216859999999997e+02,4.500486149999999839e+02,4.621162110000000212e+02,4.732916870000000245e+02,4.842063899999999990e+02,4.949559939999999756e+02,5.040841980000000149e+02,5.132946779999999762e+02,5.223281250000000000e+02,5.308256229999999505e+02
5.898358150000000251e+02,5.799246219999999994e+02,5.680283200000000079e+02,5.528220830000000205e+02,5.351148070000000416e+02,5.314780269999999973e+02,5.387711180000000013e+02,5.433613279999999577e+02,5.454379880000000185e+02,5.455416870000000245e+02,5.450794069999999465e+02,5.465377809999999954e+02,5.465101929999999584e+02,5.456881710000000112e+02,5.447429809999999861e+02,5.428317869999999630e+02,5.392720950000000357e+02,5.342102049999999736e+02,5.278198240000000396e+02,5.215590819999999894e+02,5.149149780000000192e+02,5.072528990000000135e+02,4.994205019999999990e+02,4.903760990000000106e+02,4.807750849999999900e+02,4.712825930000000199e+02,4.612475890000000049e+02,4.513341060000000198e+02,4.413684079999999881e+02,4.303521119999999769e+02,4.200793150000000082e+02,4.096705929999999967e+02,3.980405880000000138e+02,3.916456909999999993e+02,3.866936039999999934e+02,3.794737850000000208e+02,3.744473879999999895e+02,3.716702880000000278e+02,3.784494020000000205e+02,3.912703859999999736e+02,4.025750120000000152e+02,4.134820859999999811e+02,4.232265009999999847e+02,4.306370850000000132e+02,4.392645870000000059e+02,4.483232120000000123e+02,4.574725950000000125e+02,4.672612920000000258e+02,4.804668879999999831e+02,4.909780880000000138e+02,5.009153140000000235e+02,5.083819889999999759e+02,5.117307129999999802e+02,5.130501709999999775e+02,5.140203249999999571e+02,5.151049799999999550e+02,5.146757199999999557e+02,5.149647830000000113e+02,5.149038699999999835e+02,5.146912839999999960e+02,5.153494259999999940e+02,5.162897950000000264e+02,5.179995119999999815e+02,5.210457149999999729e+02,5.254384159999999611e+02,5.313939209999999775e+02,5.384431759999999940e+02,5.458681030000000192e+02,5.541525269999999637e+02,5.614990229999999656e+02,5.698297730000000456e+02,5.770308840000000146e+02,5.826627200000000357e+02,5.880048219999999901e+02,5.926762700000000450e+02,5.963125000000000000e+02,5.987813720000000330e+02,6.005451050000000350e+02,6.014627080000000205e+02,6.014536739999999782e+02,5.990407099999999900e+02,5.963021850000000086e+02,5.929376829999999927e+02,5.881342160000000376e+02,5.806774289999999610e+02,5.719091190000000324e+02,5.640385129999999663e+02,5.565576780000000099e+02,5.491343990000000304e+02,5.422642819999999801e+02,5.347465819999999894e+02,5.266339110000000119e+02,5.197780760000000555e+02,5.128364870000000337e+02,5.063962099999999964e+02,5.007344969999999762e+02,4.972153930000000059e+02,4.955967099999999732e+02,4.946090090000000146e+02,4.918774109999999951e+02,4.906856080000000020e+02,4.901784969999999930e+02,4.897893980000000056e+02,4.895834960000000251e+02,4.894150999999999954e+02,4.890422060000000215e+02,4.898107909999999947e+02,4.911408999999999878e+02,4.930480039999999917e+02,4.948106080000000020e+02,4.962253109999999765e+02,4.963254999999999768e+02,4.954254149999999868e+02,4.911033939999999802e+02,4.856033939999999802e+02,4.816719059999999786e+02,4.738776859999999829e+02,4.610985109999999736e+02,4.517298890000000142e+02,4.420172119999999722e+02,4.305534969999999930e+02,4.191460880000000202e+02,4.080190119999999752e+02,3.957426150000000007e+02,3.840466000000000122e+02,3.727872009999999818e+02,3.607224120000000198e+02,3.484447940000000017e+02,3.363216859999999997e+02,3.235893859999999904e+02,3.117055050000000165e+02,3.002961119999999937e+02,2.878093870000000152e+02,2.739823910000000069e+02,2.620840150000000222e+02,2.601546940000000063e+02,2.642257999999999925e+02,2.674819949999999835e+02,2.720393070000000080e+02,2.777367859999999951e+02,2.843529050000000211e+02,2.892202149999999961e+02,2.921368100000000254e+02,2.947141110000000026e+02,2.974674989999999752e+02,3.000609130000000278e+02,3.006556090000000268e+02,2.982543029999999931e+02,2.944826049999999782e+02,2.898926999999999907e+02,2.863031010000000265e+02,2.810770870000000059e+02,2.739754029999999716e+02,2.671166989999999828e+02,2.601628109999999765e+02,2.519864039999999932e+02,2.416835939999999994e+02,2.345345000000000084e+02,2.321546940000000063e+02,2.319644930000000045e+02,2.326340940000000046e+02,2.329145969999999863e+02,2.346230930000000114e+02,2.353224030000000084e+02,2.359340970000000084e+02,2.368889010000000042e+02,2.382369999999999948e+02,2.401930999999999869e+02,2.442586980000000096e+02,2.519851989999999944e+02,2.649444889999999759e+02,2.791539000000000215e+02,2.912121890000000235e+02,3.036267090000000053e+02,3.153716130000000248e+02,3.265651859999999829e+02,3.373763119999999844e+02,3.471820069999999987e+02,3.569147950000000264e+02,3.657078859999999736e+02,3.745671080000000188e+02,3.835018919999999980e+02,3.912668150000000082e+02,4.007596130000000016e+02,4.111322020000000066e+02,4.229852910000000179e+02,4.352650150000000053e+02,4.470033869999999752e+02,4.588145139999999742e+02,4.702131959999999822e+02,4.810327149999999961e+02,4.917341920000000073e+02,5.021073910000000069e+02,5.111694029999999884e+02,5.199699709999999868e+02,5.288342290000000503e+02,5.370562740000000304e+02
5.842994999999999663e+02,5.730646970000000238e+02,5.602706299999999828e+02,5.462138059999999768e+02,5.288480829999999742e+02,5.174238279999999577e+02,5.252739870000000337e+02,5.316071170000000166e+02,5.338928220000000238e+02,5.347467040000000225e+02,5.346342160000000376e+02,5.361384890000000496e+02,5.364575810000000047e+02,5.360120239999999967e+02,5.352836300000000165e+02,5.337913210000000390e+02,5.310443729999999505e+02,5.272343140000000403e+02,5.214926150000000007e+02,5.148439939999999524e+02,5.087065119999999752e+02,5.015881039999999871e+02,4.942453919999999812e+02,4.858026120000000105e+02,4.765163880000000063e+02,4.674790039999999749e+02,4.577680970000000116e+02,4.475949100000000271e+02,4.376904910000000086e+02,4.270144040000000132e+02,4.165474849999999947e+02,4.068008120000000076e+02,3.965650019999999927e+02,3.900072940000000017e+02,3.845490110000000072e+02,3.769778140000000235e+02,3.701726990000000228e+02,3.688254089999999792e+02,3.767164920000000166e+02,3.880866090000000099e+02,3.980787050000000136e+02,4.076546020000000112e+02,4.160743100000000254e+02,4.223210139999999910e+02,4.303898009999999772e+02,4.416809079999999881e+02,4.537643130000000156e+02,4.687644960000000083e+02,4.805432129999999802e+02,4.893400879999999802e+02,4.983999019999999973e+02,5.043157039999999824e+02,5.058015139999999974e+02,5.062987979999999766e+02,5.067085880000000202e+02,5.069082950000000096e+02,5.063613889999999742e+02,5.062674870000000169e+02,5.055711059999999861e+02,5.048666989999999828e+02,5.055245970000000284e+02,5.061744080000000281e+02,5.079161990000000060e+02,5.113627010000000155e+02,5.162874150000000100e+02,5.224793700000000172e+02,5.298250120000000152e+02,5.377819210000000112e+02,5.468814089999999624e+02,5.545546880000000556e+02,5.629257199999999557e+02,5.708975219999999808e+02,5.766030879999999570e+02,5.821784059999999954e+02,5.871912839999999960e+02,5.914694210000000112e+02,5.939771120000000337e+02,5.954841920000000073e+02,5.959887700000000450e+02,5.955565800000000536e+02,5.931646729999999934e+02,5.904113160000000562e+02,5.865952150000000529e+02,5.812313840000000482e+02,5.750034180000000106e+02,5.669047239999999874e+02,5.587440800000000536e+02,5.517550049999999828e+02,5.443881840000000238e+02,5.365134890000000496e+02,5.287523800000000165e+02,5.206002809999999954e+02,5.133513789999999517e+02,5.061270139999999742e+02,4.998275150000000053e+02,4.937423099999999749e+02,4.894440920000000119e+02,4.870617980000000102e+02,4.855563050000000089e+02,4.826494139999999788e+02,4.815372009999999818e+02,4.808154910000000086e+02,4.802492980000000102e+02,4.800656129999999848e+02,4.802038880000000063e+02,4.799419859999999858e+02,4.805440060000000244e+02,4.831057129999999802e+02,4.854198910000000069e+02,4.878576049999999782e+02,4.900380860000000212e+02,4.915300899999999729e+02,4.903958129999999755e+02,4.864067079999999805e+02,4.813523860000000241e+02,4.766583860000000072e+02,4.690757140000000049e+02,4.594396970000000238e+02,4.511752010000000155e+02,4.419495850000000132e+02,4.307051999999999907e+02,4.194158019999999851e+02,4.088275150000000053e+02,3.972962949999999864e+02,3.857242130000000202e+02,3.749146119999999769e+02,3.631014099999999871e+02,3.510705869999999891e+02,3.395389099999999871e+02,3.267867130000000202e+02,3.148359070000000202e+02,3.042123109999999997e+02,2.922033999999999878e+02,2.777283939999999802e+02,2.636911010000000033e+02,2.583533019999999851e+02,2.620362850000000208e+02,2.641900939999999878e+02,2.675227970000000255e+02,2.714070130000000063e+02,2.775563050000000089e+02,2.824071040000000039e+02,2.867479860000000258e+02,2.900716859999999997e+02,2.924714969999999994e+02,2.948659059999999954e+02,2.952237850000000208e+02,2.932832950000000096e+02,2.907117920000000026e+02,2.868169859999999858e+02,2.835119020000000205e+02,2.778381959999999822e+02,2.705736999999999739e+02,2.626893010000000004e+02,2.536390989999999874e+02,2.434389950000000056e+02,2.339947050000000104e+02,2.304996950000000027e+02,2.310830990000000043e+02,2.316802979999999934e+02,2.318625030000000038e+02,2.328258060000000000e+02,2.348786929999999984e+02,2.359450070000000039e+02,2.368728030000000047e+02,2.380229030000000137e+02,2.400455019999999990e+02,2.436020969999999863e+02,2.506446080000000052e+02,2.615232849999999871e+02,2.745596009999999865e+02,2.876077880000000278e+02,2.995860900000000129e+02,3.121720890000000281e+02,3.242659909999999854e+02,3.355730899999999792e+02,3.472370910000000208e+02,3.574742130000000202e+02,3.675470890000000281e+02,3.770223080000000095e+02,3.861666870000000245e+02,3.946011050000000182e+02,4.030671080000000188e+02,4.122442930000000274e+02,4.218146060000000261e+02,4.330667109999999980e+02,4.448063960000000066e+02,4.558023069999999848e+02,4.676171879999999987e+02,4.781300049999999828e+02,4.883915099999999825e+02,4.989932860000000119e+02,5.085010070000000155e+02,5.179495239999999967e+02,5.266046750000000429e+02,5.350900880000000370e+02,5.428140869999999722e+02
5.787213130000000092e+02,5.670601199999999835e+02,5.536533200000000079e+02,5.406497799999999643e+02,5.248629760000000033e+02,5.052634889999999928e+02,5.101267090000000053e+02,5.180905760000000555e+02,5.205283200000000079e+02,5.227897950000000264e+02,5.236290279999999484e+02,5.246282959999999775e+02,5.252785030000000006e+02,5.250872799999999643e+02,5.246431270000000495e+02,5.233776249999999663e+02,5.214553829999999834e+02,5.188198240000000396e+02,5.140936279999999670e+02,5.069269100000000208e+02,5.017051999999999907e+02,4.956693119999999908e+02,4.879638059999999768e+02,4.804941099999999778e+02,4.720653990000000135e+02,4.629590150000000222e+02,4.537909849999999778e+02,4.437056880000000092e+02,4.330050959999999804e+02,4.234614869999999769e+02,4.131582950000000096e+02,4.030253910000000133e+02,3.947323000000000093e+02,3.875779109999999719e+02,3.805190119999999752e+02,3.728710019999999759e+02,3.660577089999999885e+02,3.666029970000000162e+02,3.746250000000000000e+02,3.838074040000000196e+02,3.924057010000000218e+02,3.996260990000000106e+02,4.069837949999999864e+02,4.168251040000000103e+02,4.293616940000000000e+02,4.447835999999999785e+02,4.593193969999999808e+02,4.704812929999999938e+02,4.803508909999999901e+02,4.883995059999999739e+02,4.951765139999999974e+02,4.989686889999999835e+02,4.987329100000000039e+02,4.981724849999999947e+02,4.983649899999999775e+02,4.978169859999999858e+02,4.965198060000000169e+02,4.954016110000000026e+02,4.938696899999999914e+02,4.932504880000000185e+02,4.932514039999999795e+02,4.943663940000000139e+02,4.962160949999999957e+02,5.005116879999999924e+02,5.060238039999999842e+02,5.121951900000000251e+02,5.203087769999999637e+02,5.291240229999999656e+02,5.385335079999999834e+02,5.470242919999999458e+02,5.553895870000000059e+02,5.633228759999999511e+02,5.694542850000000271e+02,5.750131229999999505e+02,5.805996699999999464e+02,5.853289180000000442e+02,5.876401980000000549e+02,5.885831299999999828e+02,5.885277710000000297e+02,5.877952269999999544e+02,5.859432980000000271e+02,5.833223269999999729e+02,5.802022709999999961e+02,5.750272220000000516e+02,5.688950200000000450e+02,5.618674929999999677e+02,5.540670780000000377e+02,5.464647220000000516e+02,5.391718750000000000e+02,5.307233889999999974e+02,5.222767939999999953e+02,5.149840090000000146e+02,5.078103939999999739e+02,5.003750919999999951e+02,4.934959109999999782e+02,4.867900999999999954e+02,4.811337889999999788e+02,4.777907099999999900e+02,4.756798099999999749e+02,4.728765869999999722e+02,4.717814030000000116e+02,4.709249879999999848e+02,4.700506899999999746e+02,4.700004880000000185e+02,4.702395020000000159e+02,4.703012079999999742e+02,4.712676089999999931e+02,4.741390989999999874e+02,4.767225040000000149e+02,4.800415949999999725e+02,4.833660889999999881e+02,4.848355099999999993e+02,4.829585880000000202e+02,4.800100100000000225e+02,4.759508060000000000e+02,4.710392150000000129e+02,4.640975040000000149e+02,4.569399109999999951e+02,4.494431149999999775e+02,4.405690000000000168e+02,4.297856140000000096e+02,4.190451049999999782e+02,4.084642029999999977e+02,3.978739009999999894e+02,3.870510859999999980e+02,3.765105899999999792e+02,3.650963130000000092e+02,3.534193119999999908e+02,3.420905149999999821e+02,3.297670899999999961e+02,3.177644040000000132e+02,3.073716130000000248e+02,2.960870059999999739e+02,2.817413020000000188e+02,2.665986020000000281e+02,2.571673890000000142e+02,2.596596979999999917e+02,2.614122919999999795e+02,2.638294070000000033e+02,2.660299989999999752e+02,2.714403990000000135e+02,2.760603029999999762e+02,2.816736149999999839e+02,2.853052979999999934e+02,2.875896910000000162e+02,2.900982970000000023e+02,2.902536010000000033e+02,2.890990909999999872e+02,2.877474980000000073e+02,2.846654050000000211e+02,2.808604129999999941e+02,2.737958070000000248e+02,2.654158939999999802e+02,2.558083949999999902e+02,2.448798979999999972e+02,2.343137049999999988e+02,2.294958039999999926e+02,2.300623019999999883e+02,2.308009950000000003e+02,2.312812959999999975e+02,2.311457980000000134e+02,2.334013980000000004e+02,2.351221920000000125e+02,2.366076050000000066e+02,2.377769930000000045e+02,2.396087039999999888e+02,2.426517939999999953e+02,2.473592069999999978e+02,2.565736079999999788e+02,2.692683109999999829e+02,2.815278930000000059e+02,2.937297970000000191e+02,3.069465940000000046e+02,3.192710880000000202e+02,3.312142939999999953e+02,3.432084050000000275e+02,3.544802859999999782e+02,3.660632929999999874e+02,3.757044980000000010e+02,3.860754089999999792e+02,3.959497989999999845e+02,4.035015869999999722e+02,4.130748899999999821e+02,4.229216000000000122e+02,4.317139890000000264e+02,4.419224849999999947e+02,4.533536990000000060e+02,4.633342900000000100e+02,4.747782900000000268e+02,4.854259950000000003e+02,4.944743960000000129e+02,5.049202880000000278e+02,5.141536869999999908e+02,5.233720090000000482e+02,5.319426270000000159e+02,5.401373899999999821e+02,5.463657230000000027e+02
5.734456790000000410e+02,5.619100949999999557e+02,5.491909180000000106e+02,5.363690189999999802e+02,5.217396850000000086e+02,5.028273929999999723e+02,4.937373049999999921e+02,5.019490969999999948e+02,5.051846919999999841e+02,5.087879029999999716e+02,5.108165890000000218e+02,5.116795960000000036e+02,5.138134159999999611e+02,5.140675049999999828e+02,5.133668209999999590e+02,5.128126220000000330e+02,5.114106140000000096e+02,5.097604979999999841e+02,5.054899899999999775e+02,4.992406920000000241e+02,4.939429930000000013e+02,4.888051150000000007e+02,4.815721130000000016e+02,4.740934139999999957e+02,4.669099120000000198e+02,4.582965090000000146e+02,4.489809880000000248e+02,4.396604919999999765e+02,4.289276120000000105e+02,4.190268859999999904e+02,4.095429080000000113e+02,4.003096009999999865e+02,3.924324950000000172e+02,3.848352970000000255e+02,3.766954039999999964e+02,3.685487979999999766e+02,3.624431149999999775e+02,3.646488949999999818e+02,3.726129149999999868e+02,3.826893919999999980e+02,3.919939880000000016e+02,4.013424989999999752e+02,4.106736149999999839e+02,4.227059939999999756e+02,4.363940119999999752e+02,4.503041079999999852e+02,4.625169980000000010e+02,4.717703859999999736e+02,4.795946959999999990e+02,4.860018010000000004e+02,4.905884090000000128e+02,4.921401060000000030e+02,4.909476010000000201e+02,4.895398860000000241e+02,4.890898129999999924e+02,4.881427919999999858e+02,4.862466130000000248e+02,4.848411869999999908e+02,4.825557860000000119e+02,4.807312009999999987e+02,4.805513000000000261e+02,4.831789860000000090e+02,4.856872859999999719e+02,4.902302859999999782e+02,4.959971009999999865e+02,5.024067989999999782e+02,5.112603149999999914e+02,5.207097169999999551e+02,5.302863770000000159e+02,5.388798829999999498e+02,5.474581299999999828e+02,5.551481929999999920e+02,5.615521240000000489e+02,5.674368289999999888e+02,5.732813720000000330e+02,5.778587039999999888e+02,5.799671019999999544e+02,5.804213260000000218e+02,5.801915279999999484e+02,5.795582279999999855e+02,5.785161739999999782e+02,5.764827880000000278e+02,5.738588869999999815e+02,5.691331790000000410e+02,5.629968870000000152e+02,5.568181150000000343e+02,5.496740109999999504e+02,5.414086300000000165e+02,5.338206179999999677e+02,5.253134159999999611e+02,5.162877200000000357e+02,5.093710940000000278e+02,5.024573970000000145e+02,4.949530030000000238e+02,4.874913020000000188e+02,4.799002990000000182e+02,4.724999080000000049e+02,4.676264949999999772e+02,4.652131039999999871e+02,4.627569889999999759e+02,4.616376040000000103e+02,4.606749879999999848e+02,4.595902100000000132e+02,4.596747129999999970e+02,4.598750919999999951e+02,4.602795100000000161e+02,4.618886110000000258e+02,4.644999080000000049e+02,4.671929930000000013e+02,4.712896119999999769e+02,4.757832950000000096e+02,4.763114009999999894e+02,4.736597899999999868e+02,4.721994020000000205e+02,4.693259889999999928e+02,4.648987119999999891e+02,4.591195069999999987e+02,4.533322140000000218e+02,4.463987119999999891e+02,4.379122009999999818e+02,4.278331909999999993e+02,4.180042109999999980e+02,4.070887149999999792e+02,3.974219969999999762e+02,3.880317079999999805e+02,3.776462099999999964e+02,3.667799069999999801e+02,3.556806950000000143e+02,3.441966859999999997e+02,3.327417909999999779e+02,3.210520020000000159e+02,3.102797850000000039e+02,3.001745000000000232e+02,2.867437130000000138e+02,2.705415039999999749e+02,2.563980099999999993e+02,2.564576109999999858e+02,2.584844059999999786e+02,2.604985960000000205e+02,2.616514890000000264e+02,2.655758060000000000e+02,2.698088070000000016e+02,2.759320979999999963e+02,2.793796080000000188e+02,2.822103880000000231e+02,2.850085139999999910e+02,2.854722899999999868e+02,2.853364869999999769e+02,2.849157099999999900e+02,2.818163149999999746e+02,2.755844119999999862e+02,2.663772890000000189e+02,2.551922000000000139e+02,2.431320039999999949e+02,2.339647060000000067e+02,2.297615969999999948e+02,2.288377079999999921e+02,2.296157990000000098e+02,2.304420929999999998e+02,2.306611939999999947e+02,2.311878049999999973e+02,2.338724060000000122e+02,2.355904999999999916e+02,2.373813020000000051e+02,2.393381960000000106e+02,2.420567020000000014e+02,2.454721979999999917e+02,2.510388030000000015e+02,2.614863889999999742e+02,2.754992980000000102e+02,2.892206120000000169e+02,3.009670100000000161e+02,3.139877930000000106e+02,3.267908019999999851e+02,3.392962949999999864e+02,3.515035100000000057e+02,3.625307010000000218e+02,3.741960139999999910e+02,3.847416079999999852e+02,3.948023069999999848e+02,4.046719059999999786e+02,4.139254149999999868e+02,4.231653140000000235e+02,4.329267879999999877e+02,4.422349849999999947e+02,4.519643859999999904e+02,4.629162900000000036e+02,4.727738949999999818e+02,4.822257079999999974e+02,4.921086119999999937e+02,5.020201109999999858e+02,5.106597899999999868e+02,5.193936159999999518e+02,5.283784789999999703e+02,5.370520020000000159e+02,5.442994999999999663e+02,5.499024050000000443e+02
5.699780879999999570e+02,5.576336059999999861e+02,5.454846800000000258e+02,5.325410769999999729e+02,5.184025880000000370e+02,5.014338989999999967e+02,4.853622129999999970e+02,4.820315860000000043e+02,4.875769040000000132e+02,4.936495970000000284e+02,4.971057129999999802e+02,4.983377080000000205e+02,5.010148009999999772e+02,5.019942019999999729e+02,5.017656860000000165e+02,5.021289980000000241e+02,5.012005919999999719e+02,4.999574890000000096e+02,4.962124019999999973e+02,4.911332090000000221e+02,4.862601930000000152e+02,4.815248109999999997e+02,4.750216980000000149e+02,4.676603089999999838e+02,4.608822020000000066e+02,4.532435909999999808e+02,4.442146000000000186e+02,4.350602109999999811e+02,4.250138850000000161e+02,4.150893859999999904e+02,4.058887940000000185e+02,3.978053889999999910e+02,3.895762020000000234e+02,3.810054930000000013e+02,3.724516909999999825e+02,3.640268859999999904e+02,3.591935119999999984e+02,3.625076900000000251e+02,3.720867920000000026e+02,3.839218139999999835e+02,3.940698849999999993e+02,4.056358950000000050e+02,4.173402100000000132e+02,4.300916139999999928e+02,4.432640989999999874e+02,4.545779109999999719e+02,4.639281010000000265e+02,4.721675109999999904e+02,4.780484010000000126e+02,4.824241940000000000e+02,4.847372129999999970e+02,4.842864069999999970e+02,4.825581970000000069e+02,4.805841060000000198e+02,4.794395139999999742e+02,4.782670899999999961e+02,4.760130919999999719e+02,4.743133849999999825e+02,4.712760010000000079e+02,4.675622859999999719e+02,4.676239929999999845e+02,4.724289860000000090e+02,4.763030089999999745e+02,4.808848879999999895e+02,4.867273860000000241e+02,4.935076900000000251e+02,5.028230899999999792e+02,5.126029049999999643e+02,5.221807860000000119e+02,5.303854979999999841e+02,5.392672730000000456e+02,5.466627200000000357e+02,5.531096800000000258e+02,5.596267699999999650e+02,5.652562870000000430e+02,5.690911869999999908e+02,5.709733280000000377e+02,5.712025149999999485e+02,5.713007199999999557e+02,5.712202150000000529e+02,5.712022709999999961e+02,5.703308719999999994e+02,5.676132810000000291e+02,5.633939820000000509e+02,5.575916750000000093e+02,5.517587280000000192e+02,5.454346920000000409e+02,5.369987180000000535e+02,5.285056150000000343e+02,5.206475219999999808e+02,5.115439150000000268e+02,5.034216920000000073e+02,4.967517090000000053e+02,4.894041139999999928e+02,4.819700010000000248e+02,4.730940860000000043e+02,4.636747129999999970e+02,4.561447140000000218e+02,4.543131099999999947e+02,4.525010990000000106e+02,4.513422850000000039e+02,4.502976070000000277e+02,4.495313110000000165e+02,4.496119080000000281e+02,4.497922970000000191e+02,4.502589110000000119e+02,4.523204959999999915e+02,4.549371949999999742e+02,4.576135859999999980e+02,4.615028080000000159e+02,4.659862059999999815e+02,4.664501950000000079e+02,4.643427120000000059e+02,4.633564150000000268e+02,4.602737119999999891e+02,4.562413940000000139e+02,4.521268010000000004e+02,4.464588929999999891e+02,4.411723939999999970e+02,4.338109130000000278e+02,4.247286070000000109e+02,4.148337099999999964e+02,4.053297119999999722e+02,3.959509889999999928e+02,3.871178889999999910e+02,3.779685969999999884e+02,3.671870119999999815e+02,3.566239009999999894e+02,3.459410100000000057e+02,3.337114869999999769e+02,3.234213869999999815e+02,3.140253910000000133e+02,3.041017150000000129e+02,2.914775089999999977e+02,2.765100100000000225e+02,2.602302859999999782e+02,2.537604980000000126e+02,2.555204929999999877e+02,2.579086909999999762e+02,2.588201900000000251e+02,2.613934019999999805e+02,2.658205869999999891e+02,2.702629089999999792e+02,2.729898989999999799e+02,2.768586119999999937e+02,2.803337099999999964e+02,2.815611880000000156e+02,2.825953979999999888e+02,2.815199890000000096e+02,2.749377140000000281e+02,2.650603029999999762e+02,2.544192960000000028e+02,2.435563050000000089e+02,2.352577970000000107e+02,2.303525999999999954e+02,2.286329039999999964e+02,2.283464969999999994e+02,2.290408020000000135e+02,2.296746980000000065e+02,2.302890930000000083e+02,2.313240049999999997e+02,2.347422029999999893e+02,2.374062959999999975e+02,2.394730989999999906e+02,2.419279940000000124e+02,2.450803070000000048e+02,2.488672939999999869e+02,2.547174990000000037e+02,2.671984860000000026e+02,2.807980039999999917e+02,2.948106989999999996e+02,3.074569089999999960e+02,3.201452939999999785e+02,3.334437869999999862e+02,3.461716920000000073e+02,3.582973020000000020e+02,3.701776120000000105e+02,3.820165099999999825e+02,3.925513000000000261e+02,4.031211850000000254e+02,4.130119020000000205e+02,4.231788020000000188e+02,4.324968870000000152e+02,4.420932920000000195e+02,4.517047119999999722e+02,4.620085139999999910e+02,4.716050109999999904e+02,4.812202149999999961e+02,4.905188899999999990e+02,4.994855959999999868e+02,5.089971009999999865e+02,5.169362180000000535e+02,5.254812010000000555e+02,5.338336180000000013e+02,5.414984739999999874e+02,5.476071779999999762e+02,5.525795289999999795e+02
5.671115109999999504e+02,5.543292239999999538e+02,5.423344730000000027e+02,5.299954219999999623e+02,5.165388179999999920e+02,5.011140139999999974e+02,4.826337889999999788e+02,4.683760070000000155e+02,4.702788090000000238e+02,4.774451900000000251e+02,4.823059079999999881e+02,4.843890079999999898e+02,4.874074100000000271e+02,4.892908939999999802e+02,4.899715879999999970e+02,4.910564880000000016e+02,4.906239009999999894e+02,4.896034849999999778e+02,4.868038940000000139e+02,4.827850950000000125e+02,4.784494930000000181e+02,4.738500980000000027e+02,4.680899959999999851e+02,4.612521970000000238e+02,4.543082890000000020e+02,4.476914059999999722e+02,4.394399109999999951e+02,4.301025999999999954e+02,4.211852109999999811e+02,4.117685849999999732e+02,4.023757929999999874e+02,3.952031860000000165e+02,3.861166989999999828e+02,3.761163020000000188e+02,3.676431880000000092e+02,3.593763119999999844e+02,3.562781979999999749e+02,3.602620850000000132e+02,3.734713130000000092e+02,3.872448120000000245e+02,3.976888119999999844e+02,4.097817079999999805e+02,4.231101070000000277e+02,4.346476139999999759e+02,4.457580869999999891e+02,4.555900879999999802e+02,4.636265869999999722e+02,4.711675109999999904e+02,4.754241940000000000e+02,4.776482849999999871e+02,4.774688110000000165e+02,4.755881039999999871e+02,4.735477910000000179e+02,4.714743040000000178e+02,4.700013119999999844e+02,4.686492000000000075e+02,4.665075990000000274e+02,4.634368900000000053e+02,4.593736880000000156e+02,4.541000060000000076e+02,4.547898860000000241e+02,4.618027950000000033e+02,4.680598140000000171e+02,4.736289059999999722e+02,4.797698970000000145e+02,4.865837099999999964e+02,4.952760010000000079e+02,5.047316890000000171e+02,5.141359860000000026e+02,5.227241820000000416e+02,5.311511839999999438e+02,5.388446040000000039e+02,5.452098999999999478e+02,5.515892939999999953e+02,5.563469850000000179e+02,5.594785160000000133e+02,5.609526980000000549e+02,5.619390260000000126e+02,5.625950930000000199e+02,5.630861210000000483e+02,5.639744869999999537e+02,5.637006840000000238e+02,5.614021000000000186e+02,5.571876829999999927e+02,5.521644290000000410e+02,5.465646970000000238e+02,5.399495239999999967e+02,5.324696040000000039e+02,5.240554200000000264e+02,5.156588749999999663e+02,5.070610050000000228e+02,4.981559139999999957e+02,4.905156860000000165e+02,4.829870910000000208e+02,4.757250980000000027e+02,4.662091980000000149e+02,4.549780880000000138e+02,4.448481140000000096e+02,4.421460880000000202e+02,4.413611149999999839e+02,4.408699040000000196e+02,4.404195859999999811e+02,4.394324040000000196e+02,4.396469119999999862e+02,4.396550899999999729e+02,4.405567019999999729e+02,4.425299989999999752e+02,4.450903020000000083e+02,4.476888119999999844e+02,4.515082090000000221e+02,4.555974120000000198e+02,4.560741879999999924e+02,4.545093989999999735e+02,4.531571959999999990e+02,4.504110109999999736e+02,4.472651060000000030e+02,4.437481989999999996e+02,4.393865969999999948e+02,4.349493100000000254e+02,4.285750120000000152e+02,4.204312130000000138e+02,4.112669980000000010e+02,4.031871029999999791e+02,3.938505860000000212e+02,3.850143130000000156e+02,3.767793879999999831e+02,3.665320130000000063e+02,3.563630069999999819e+02,3.464843139999999835e+02,3.342785949999999957e+02,3.250264890000000264e+02,3.167106019999999944e+02,3.071000060000000076e+02,2.954107060000000047e+02,2.820060119999999984e+02,2.647233889999999974e+02,2.521553040000000010e+02,2.522653050000000121e+02,2.551354059999999890e+02,2.560950930000000199e+02,2.580238949999999818e+02,2.619645080000000235e+02,2.653052979999999934e+02,2.677081909999999993e+02,2.720754089999999792e+02,2.758817139999999881e+02,2.775780940000000214e+02,2.797225040000000149e+02,2.770043949999999882e+02,2.661398009999999772e+02,2.531280979999999943e+02,2.431712039999999888e+02,2.350325929999999914e+02,2.303025969999999916e+02,2.287093050000000005e+02,2.281826930000000004e+02,2.283090970000000084e+02,2.286089020000000005e+02,2.295036929999999984e+02,2.301029049999999927e+02,2.323119049999999959e+02,2.365229950000000088e+02,2.397949069999999949e+02,2.424438930000000028e+02,2.454114989999999921e+02,2.488943940000000055e+02,2.526622010000000103e+02,2.589094850000000179e+02,2.726848140000000171e+02,2.855250849999999900e+02,2.994237979999999766e+02,3.130275879999999802e+02,3.255642090000000053e+02,3.392361149999999839e+02,3.522550959999999804e+02,3.642221979999999917e+02,3.772384030000000052e+02,3.892189940000000092e+02,3.994627080000000205e+02,4.108056030000000192e+02,4.209429020000000037e+02,4.312670899999999961e+02,4.410586850000000254e+02,4.506596069999999941e+02,4.604030149999999821e+02,4.713245850000000132e+02,4.796630860000000212e+02,4.888793949999999882e+02,4.990899049999999875e+02,5.071651919999999905e+02,5.153737790000000132e+02,5.235612790000000132e+02,5.319915160000000469e+02,5.393048710000000483e+02,5.451857909999999947e+02,5.501198729999999841e+02,nan
5.647169189999999617e+02,5.522083129999999755e+02,5.398604129999999941e+02,5.292954710000000205e+02,5.170526730000000271e+02,5.019884950000000003e+02,4.854509889999999928e+02,4.681047060000000215e+02,4.549874879999999848e+02,4.599584050000000275e+02,4.660762940000000185e+02,4.695515139999999974e+02,4.733121029999999791e+02,4.762442019999999729e+02,4.780773929999999723e+02,4.791724849999999947e+02,4.792228089999999838e+02,4.788453059999999937e+02,4.781936949999999911e+02,4.744218139999999835e+02,4.699578859999999736e+02,4.656766969999999901e+02,4.601437070000000062e+02,4.548977970000000255e+02,4.480791019999999776e+02,4.411599120000000198e+02,4.341907039999999824e+02,4.256384889999999928e+02,4.172435909999999808e+02,4.091398009999999772e+02,3.998869930000000181e+02,3.914161070000000109e+02,3.821166989999999828e+02,3.716325990000000274e+02,3.621227109999999811e+02,3.551553040000000010e+02,3.536419070000000033e+02,3.613439940000000092e+02,3.749283140000000003e+02,3.880864869999999769e+02,3.995390009999999847e+02,4.110751950000000079e+02,4.238146970000000238e+02,4.351388850000000161e+02,4.444378970000000209e+02,4.530372919999999795e+02,4.610393070000000080e+02,4.672767939999999953e+02,4.702730099999999993e+02,4.704782099999999900e+02,4.691535949999999957e+02,4.671365049999999997e+02,4.651289980000000241e+02,4.630541079999999852e+02,4.611958010000000172e+02,4.590093989999999735e+02,4.566897890000000189e+02,4.527304990000000089e+02,4.465042109999999980e+02,4.395846859999999765e+02,4.403140869999999722e+02,4.510486149999999839e+02,4.596145020000000159e+02,4.668352970000000255e+02,4.735899049999999875e+02,4.804937130000000138e+02,4.886232909999999947e+02,4.978247069999999894e+02,5.069378050000000258e+02,5.156677859999999782e+02,5.239010009999999511e+02,5.318873899999999821e+02,5.383635860000000548e+02,5.434118039999999610e+02,5.470961300000000165e+02,5.499066159999999854e+02,5.515769040000000132e+02,5.525988770000000159e+02,5.536246949999999742e+02,5.546541750000000093e+02,5.564523930000000291e+02,5.564254150000000436e+02,5.546207279999999855e+02,5.506505740000000060e+02,5.459561770000000251e+02,5.409823000000000093e+02,5.345233759999999847e+02,5.273049929999999677e+02,5.195059810000000198e+02,5.110730899999999792e+02,5.023557129999999802e+02,4.934700930000000199e+02,4.850199890000000096e+02,4.768706970000000069e+02,4.689071959999999990e+02,4.591224980000000073e+02,4.465663149999999746e+02,4.343840030000000070e+02,4.298551939999999831e+02,4.301986079999999788e+02,4.306665949999999725e+02,4.306296080000000188e+02,4.296524959999999851e+02,4.301311949999999911e+02,4.300252080000000205e+02,4.308847959999999944e+02,4.325599980000000073e+02,4.350362850000000208e+02,4.379053040000000010e+02,4.413927919999999858e+02,4.449336850000000254e+02,4.455407099999999900e+02,4.447502140000000281e+02,4.429176939999999831e+02,4.404845890000000281e+02,4.381278080000000159e+02,4.350783079999999927e+02,4.318275150000000053e+02,4.278369139999999788e+02,4.219750980000000027e+02,4.148179020000000037e+02,4.068363949999999818e+02,3.998664860000000090e+02,3.907959900000000175e+02,3.819754940000000261e+02,3.742670899999999961e+02,3.648349000000000046e+02,3.551198120000000245e+02,3.458139039999999795e+02,3.342529910000000086e+02,3.257883909999999901e+02,3.181022950000000264e+02,3.088689880000000016e+02,2.982478939999999739e+02,2.864555050000000165e+02,2.696434019999999805e+02,2.521502989999999897e+02,2.491354980000000126e+02,2.519797969999999907e+02,2.532949979999999925e+02,2.551822970000000055e+02,2.581021119999999769e+02,2.611106869999999844e+02,2.636763000000000261e+02,2.679182129999999802e+02,2.714881899999999746e+02,2.734632869999999798e+02,2.764450990000000274e+02,2.714888000000000261e+02,2.565133969999999977e+02,2.417783049999999889e+02,2.343782040000000109e+02,2.306623989999999935e+02,2.278321990000000028e+02,2.276112980000000050e+02,2.276661990000000060e+02,2.287657010000000071e+02,2.284387049999999988e+02,2.303012999999999977e+02,2.301605989999999906e+02,2.345937040000000025e+02,2.395354000000000099e+02,2.424008029999999962e+02,2.461743930000000091e+02,2.498661040000000071e+02,2.537783049999999889e+02,2.566979059999999890e+02,2.639863889999999742e+02,2.771329959999999915e+02,2.898767090000000053e+02,3.036917109999999980e+02,3.173416139999999928e+02,3.301787110000000212e+02,3.439021000000000186e+02,3.577912900000000036e+02,3.698840940000000046e+02,3.832125849999999900e+02,3.952676089999999931e+02,4.057398069999999848e+02,4.172356869999999844e+02,4.283113099999999918e+02,4.379334109999999782e+02,4.485678100000000086e+02,4.590169070000000033e+02,4.687846069999999941e+02,4.781050109999999904e+02,4.876864929999999845e+02,4.964249879999999848e+02,5.062683109999999829e+02,5.137568969999999808e+02,5.213812259999999696e+02,5.297880860000000212e+02,5.369730829999999742e+02,5.426876220000000330e+02,5.478267210000000205e+02,nan,nan
5.665200200000000450e+02,5.549954219999999623e+02,5.432030029999999670e+02,5.320535889999999881e+02,5.195626220000000330e+02,5.040014949999999772e+02,4.893904109999999719e+02,4.741877140000000281e+02,4.588612059999999815e+02,4.510765989999999874e+02,4.499635010000000079e+02,4.537850040000000149e+02,4.577903140000000235e+02,4.619686889999999835e+02,4.649454039999999964e+02,4.669964899999999943e+02,4.677048950000000218e+02,4.677843930000000228e+02,4.672091980000000149e+02,4.642239069999999970e+02,4.603757929999999874e+02,4.569370119999999815e+02,4.520762020000000234e+02,4.471330869999999891e+02,4.412186889999999835e+02,4.346495970000000284e+02,4.284002080000000205e+02,4.211037900000000036e+02,4.134834900000000175e+02,4.058129880000000185e+02,3.973247069999999894e+02,3.882282099999999900e+02,3.784403990000000135e+02,3.679693909999999732e+02,3.576766049999999950e+02,3.518894960000000083e+02,3.520845949999999789e+02,3.622186889999999835e+02,3.755969850000000179e+02,3.881235050000000228e+02,3.994312130000000138e+02,4.110834050000000275e+02,4.230140989999999874e+02,4.334472959999999944e+02,4.418044130000000109e+02,4.492240909999999872e+02,4.565981140000000096e+02,4.617398069999999848e+02,4.634139099999999871e+02,4.624779050000000211e+02,4.605822140000000218e+02,4.590401919999999905e+02,4.570591130000000248e+02,4.547768859999999904e+02,4.524646910000000162e+02,4.497333070000000248e+02,4.467059939999999756e+02,4.417601930000000152e+02,4.333562009999999987e+02,4.244422910000000115e+02,4.267320859999999811e+02,4.408926089999999931e+02,4.515765079999999898e+02,4.598706050000000118e+02,4.673254089999999792e+02,4.745103149999999914e+02,4.820571899999999914e+02,4.910057980000000271e+02,5.000765079999999898e+02,5.087132869999999798e+02,5.169644170000000258e+02,5.249951170000000502e+02,5.313660889999999881e+02,5.348886109999999690e+02,5.377327880000000278e+02,5.404497069999999894e+02,5.425087889999999788e+02,5.435081790000000410e+02,5.448394170000000258e+02,5.463732300000000350e+02,5.485194699999999557e+02,5.485839839999999867e+02,5.472269900000000007e+02,5.438748779999999670e+02,5.393552250000000186e+02,5.349652710000000297e+02,5.290369259999999940e+02,5.218670039999999517e+02,5.147819210000000112e+02,5.067279050000000211e+02,4.975913090000000238e+02,4.890911869999999908e+02,4.802560119999999984e+02,4.712294009999999957e+02,4.619223939999999970e+02,4.520411990000000060e+02,4.387106019999999944e+02,4.250946959999999990e+02,4.178146060000000261e+02,4.189612119999999891e+02,4.206494139999999788e+02,4.208233950000000050e+02,4.202601010000000201e+02,4.210610050000000228e+02,4.209996029999999791e+02,4.211708070000000248e+02,4.224567870000000198e+02,4.248359070000000202e+02,4.284125060000000076e+02,4.311632079999999974e+02,4.340960079999999834e+02,4.350170899999999961e+02,4.353522950000000264e+02,4.332738039999999842e+02,4.308651120000000105e+02,4.288876950000000079e+02,4.267441099999999778e+02,4.235151060000000030e+02,4.197254940000000261e+02,4.135130919999999719e+02,4.075020139999999742e+02,4.009205019999999990e+02,3.942255860000000212e+02,3.862226870000000076e+02,3.781005860000000212e+02,3.702561039999999934e+02,3.618232120000000123e+02,3.529979860000000258e+02,3.435650019999999927e+02,3.331188050000000089e+02,3.253822020000000066e+02,3.173995059999999739e+02,3.084645080000000235e+02,2.991015009999999847e+02,2.882947080000000142e+02,2.745324100000000271e+02,2.558802949999999896e+02,2.475917049999999904e+02,2.478065949999999873e+02,2.500814970000000130e+02,2.521268010000000004e+02,2.544575959999999952e+02,2.576524049999999875e+02,2.609307860000000119e+02,2.642748109999999997e+02,2.665394900000000007e+02,2.697644040000000132e+02,2.720784909999999854e+02,2.668681950000000143e+02,2.523679960000000051e+02,2.425072940000000017e+02,2.329364009999999894e+02,2.280854030000000137e+02,2.273694000000000131e+02,2.271273960000000045e+02,2.274100039999999865e+02,2.281452030000000093e+02,2.285090030000000070e+02,2.297172999999999945e+02,2.329886930000000120e+02,2.386466979999999865e+02,2.427377930000000106e+02,2.460476989999999944e+02,2.493294980000000010e+02,2.534207000000000107e+02,2.572130129999999895e+02,2.619184880000000248e+02,2.709469910000000255e+02,2.824057010000000218e+02,2.944898989999999799e+02,3.075212099999999964e+02,3.207583010000000172e+02,3.347309880000000248e+02,3.482611079999999788e+02,3.618139949999999772e+02,3.750353999999999814e+02,3.876231080000000020e+02,4.000165099999999825e+02,4.113082890000000020e+02,4.224512020000000234e+02,4.338359990000000153e+02,4.448042909999999779e+02,4.550982970000000023e+02,4.657710880000000202e+02,4.758485109999999736e+02,4.849724120000000198e+02,4.951247859999999719e+02,5.035483090000000175e+02,5.119035030000000006e+02,5.199125980000000027e+02,5.275181270000000495e+02,5.341890260000000126e+02,5.403978270000000066e+02,5.453444210000000112e+02,nan,nan,nan
5.668474730000000363e+02,5.559296880000000556e+02,5.455369869999999537e+02,5.344857789999999795e+02,5.216151119999999537e+02,5.073886110000000258e+02,4.941474000000000046e+02,4.805197140000000218e+02,4.657489009999999894e+02,4.513703919999999812e+02,4.420408939999999802e+02,4.398313899999999990e+02,4.419436039999999934e+02,4.472557980000000271e+02,4.515656129999999848e+02,4.546944889999999759e+02,4.560751950000000079e+02,4.563622129999999970e+02,4.556684880000000248e+02,4.536852109999999811e+02,4.506724849999999947e+02,4.477597959999999944e+02,4.436065980000000195e+02,4.388424989999999752e+02,4.336966859999999997e+02,4.279761960000000158e+02,4.222532039999999824e+02,4.159942930000000274e+02,4.094057920000000195e+02,4.021325069999999755e+02,3.943185119999999984e+02,3.853894040000000132e+02,3.752504880000000185e+02,3.645320130000000063e+02,3.539569089999999960e+02,3.491838070000000016e+02,3.512506099999999947e+02,3.628161010000000033e+02,3.754346919999999841e+02,3.872343139999999835e+02,3.978103939999999739e+02,4.096474910000000023e+02,4.206429140000000189e+02,4.297951049999999782e+02,4.376661070000000109e+02,4.441567079999999805e+02,4.504313050000000089e+02,4.545801999999999907e+02,4.550889890000000264e+02,4.538597110000000043e+02,4.519356080000000020e+02,4.511111149999999839e+02,4.491907039999999824e+02,4.465903930000000059e+02,4.437239989999999921e+02,4.406883849999999825e+02,4.364981989999999996e+02,4.303778080000000159e+02,4.202311100000000010e+02,4.091755069999999819e+02,4.148658140000000003e+02,4.316162110000000212e+02,4.441083070000000248e+02,4.525539860000000090e+02,4.606823120000000245e+02,4.683456120000000169e+02,4.752518010000000004e+02,4.839743960000000129e+02,4.933627930000000106e+02,5.015974120000000198e+02,5.100964969999999994e+02,5.177167970000000423e+02,5.233441159999999854e+02,5.258361820000000080e+02,5.284127809999999954e+02,5.311909789999999703e+02,5.334879150000000436e+02,5.350714110000000119e+02,5.367747190000000046e+02,5.387506100000000515e+02,5.398784789999999703e+02,5.400963130000000092e+02,5.389965210000000297e+02,5.369370119999999815e+02,5.329519040000000132e+02,5.282788699999999835e+02,5.232454219999999623e+02,5.169293820000000323e+02,5.096729129999999941e+02,5.022600100000000225e+02,4.933070979999999963e+02,4.842399899999999775e+02,4.760745850000000132e+02,4.666541139999999928e+02,4.563546140000000264e+02,4.459050899999999729e+02,4.328283079999999927e+02,4.183410030000000006e+02,4.073956909999999993e+02,4.065682069999999726e+02,4.097330019999999990e+02,4.108131099999999947e+02,4.111495059999999739e+02,4.115881959999999822e+02,4.116600950000000125e+02,4.117491150000000175e+02,4.132724910000000023e+02,4.153995059999999739e+02,4.181760859999999980e+02,4.209775089999999977e+02,4.239064030000000116e+02,4.254327999999999861e+02,4.256192019999999729e+02,4.237785949999999957e+02,4.220881959999999822e+02,4.199018859999999904e+02,4.175368040000000178e+02,4.140382079999999974e+02,4.092455140000000142e+02,4.043017879999999877e+02,3.984563899999999990e+02,3.921693119999999908e+02,3.859085999999999785e+02,3.788106080000000020e+02,3.710871890000000235e+02,3.641708070000000248e+02,3.571113889999999742e+02,3.498916929999999752e+02,3.411596979999999917e+02,3.310857849999999871e+02,3.237036130000000185e+02,3.158164059999999722e+02,3.063926999999999907e+02,2.980270080000000235e+02,2.890516049999999950e+02,2.772620850000000132e+02,2.613806149999999775e+02,2.478699949999999887e+02,2.453739930000000129e+02,2.468491060000000061e+02,2.493014980000000094e+02,2.520659939999999892e+02,2.549750060000000076e+02,2.582049870000000169e+02,2.610823970000000145e+02,2.628428040000000010e+02,2.661314090000000192e+02,2.678073120000000245e+02,2.649491879999999924e+02,2.555765989999999874e+02,2.482704009999999926e+02,2.378751980000000117e+02,2.283439940000000092e+02,2.265337979999999902e+02,2.264436949999999911e+02,2.272254030000000000e+02,2.277391969999999901e+02,2.289815059999999960e+02,2.305346979999999917e+02,2.356454009999999926e+02,2.409329989999999952e+02,2.449479980000000126e+02,2.489226069999999993e+02,2.524125980000000027e+02,2.569516909999999825e+02,2.610895080000000235e+02,2.674390869999999722e+02,2.776004029999999716e+02,2.885956120000000169e+02,2.999909969999999930e+02,3.127380979999999795e+02,3.259943850000000225e+02,3.392442930000000274e+02,3.525574950000000172e+02,3.661494139999999788e+02,3.793478089999999838e+02,3.918298030000000267e+02,4.046530149999999821e+02,4.163450930000000199e+02,4.277249150000000100e+02,4.390862119999999891e+02,4.507590030000000070e+02,4.612939150000000268e+02,4.720086979999999812e+02,4.825618900000000053e+02,4.918959050000000275e+02,5.016299129999999877e+02,5.098131099999999947e+02,5.174063720000000330e+02,5.252650760000000218e+02,5.324268190000000232e+02,5.378745119999999815e+02,5.429359739999999874e+02,nan,nan,nan,nan
5.661759029999999484e+02,5.556461180000000013e+02,5.465595700000000079e+02,5.362166750000000093e+02,5.233756710000000112e+02,5.111892090000000053e+02,4.989352109999999811e+02,4.862802120000000059e+02,4.735203859999999736e+02,4.585367130000000202e+02,4.425068049999999857e+02,4.307525019999999927e+02,4.285781860000000165e+02,4.326008909999999901e+02,4.375606080000000020e+02,4.417157900000000268e+02,4.440004880000000185e+02,4.444226070000000277e+02,4.438713070000000016e+02,4.431189880000000016e+02,4.410415039999999749e+02,4.381694949999999835e+02,4.345794070000000033e+02,4.302474060000000122e+02,4.254252930000000106e+02,4.209961850000000254e+02,4.157690119999999752e+02,4.099931030000000192e+02,4.047188110000000165e+02,3.981955869999999891e+02,3.905700990000000274e+02,3.827926939999999831e+02,3.727044980000000010e+02,3.609299009999999726e+02,3.508216859999999997e+02,3.468546140000000264e+02,3.509220890000000281e+02,3.630246890000000235e+02,3.740936889999999835e+02,3.850765989999999874e+02,3.949176939999999831e+02,4.060329899999999839e+02,4.162432860000000119e+02,4.241252140000000281e+02,4.311164860000000090e+02,4.375000919999999951e+02,4.424721069999999941e+02,4.454063110000000165e+02,4.455411070000000109e+02,4.448280940000000214e+02,4.436293949999999882e+02,4.425013119999999844e+02,4.410380860000000212e+02,4.386442870000000198e+02,4.348474120000000198e+02,4.306523129999999924e+02,4.254659120000000030e+02,4.181463929999999891e+02,4.084494930000000181e+02,3.974526979999999980e+02,4.067594910000000255e+02,4.240780940000000214e+02,4.368652040000000056e+02,4.454021910000000162e+02,4.531524049999999875e+02,4.611965030000000070e+02,4.686758120000000076e+02,4.774244080000000281e+02,4.866088869999999815e+02,4.945877990000000182e+02,5.024124150000000100e+02,5.095942079999999805e+02,5.141134029999999484e+02,5.162158809999999676e+02,5.187305910000000040e+02,5.212924799999999550e+02,5.241149289999999610e+02,5.263712160000000040e+02,5.279362180000000535e+02,5.301724239999999782e+02,5.310286869999999908e+02,5.313964230000000271e+02,5.307122190000000046e+02,5.290797119999999722e+02,5.261315919999999551e+02,5.216741940000000568e+02,5.167255860000000212e+02,5.110881039999999871e+02,5.040953979999999888e+02,4.964797060000000215e+02,4.885827939999999785e+02,4.797673030000000267e+02,4.713575129999999831e+02,4.621729129999999941e+02,4.524042969999999855e+02,4.412401120000000105e+02,4.284291989999999828e+02,4.140530089999999745e+02,3.984942930000000274e+02,3.941662900000000036e+02,3.978528140000000235e+02,4.002495119999999815e+02,4.013095089999999914e+02,4.019957890000000020e+02,4.021383969999999977e+02,4.024950870000000123e+02,4.040119930000000181e+02,4.057966920000000073e+02,4.081787110000000212e+02,4.111351010000000201e+02,4.135504149999999868e+02,4.152901919999999905e+02,4.153308109999999829e+02,4.138731080000000020e+02,4.126094969999999762e+02,4.104667969999999855e+02,4.075627140000000281e+02,4.041968079999999759e+02,3.990512079999999742e+02,3.945698849999999993e+02,3.892626950000000079e+02,3.832944949999999835e+02,3.768779910000000086e+02,3.702131959999999822e+02,3.630309139999999957e+02,3.573280030000000238e+02,3.516189880000000016e+02,3.452825010000000248e+02,3.373902889999999957e+02,3.283411869999999908e+02,3.208711850000000254e+02,3.129999080000000049e+02,3.037963869999999815e+02,2.963718870000000152e+02,2.889030149999999821e+02,2.787466130000000248e+02,2.655280149999999821e+02,2.483885960000000068e+02,2.434640049999999860e+02,2.445377039999999909e+02,2.468621060000000114e+02,2.498150939999999878e+02,2.525829009999999926e+02,2.557640989999999874e+02,2.584729919999999765e+02,2.599278869999999984e+02,2.627163090000000238e+02,2.640400089999999977e+02,2.634988099999999918e+02,2.594408869999999752e+02,2.531685029999999870e+02,2.422599950000000035e+02,2.285281980000000033e+02,2.257765049999999860e+02,2.260437009999999987e+02,2.270610049999999944e+02,2.277308960000000013e+02,2.298995970000000000e+02,2.324468990000000019e+02,2.378182979999999986e+02,2.420982970000000023e+02,2.463993069999999932e+02,2.510442960000000028e+02,2.552153020000000083e+02,2.601712949999999864e+02,2.654613039999999842e+02,2.733587039999999888e+02,2.839265139999999974e+02,2.954256899999999746e+02,3.064989009999999894e+02,3.192550959999999804e+02,3.326542969999999855e+02,3.441708070000000248e+02,3.572207030000000145e+02,3.711044919999999934e+02,3.833157959999999775e+02,3.962416079999999852e+02,4.094295960000000036e+02,4.210567019999999729e+02,4.331741940000000000e+02,4.443211979999999812e+02,4.557314150000000268e+02,4.673005069999999819e+02,4.779342040000000225e+02,4.890744020000000205e+02,4.987265009999999847e+02,5.070509950000000003e+02,5.150725710000000390e+02,5.231342160000000376e+02,5.295769040000000132e+02,5.355117800000000443e+02,5.411967160000000376e+02,nan,nan,nan,nan,nan
5.649910280000000284e+02,5.546918950000000450e+02,5.453502809999999954e+02,5.364788210000000390e+02,5.249539790000000039e+02,5.132687989999999445e+02,5.020197140000000218e+02,4.893839110000000119e+02,4.774917909999999779e+02,4.663951109999999858e+02,4.530492859999999951e+02,4.393053889999999910e+02,4.297379149999999868e+02,4.196986999999999739e+02,4.199525150000000053e+02,4.246653140000000235e+02,4.290668029999999931e+02,4.307699890000000096e+02,4.311759030000000052e+02,4.327345890000000281e+02,4.310875849999999900e+02,4.281510010000000079e+02,4.240639949999999772e+02,4.206507869999999798e+02,4.162536010000000033e+02,4.119751890000000003e+02,4.075089110000000119e+02,4.025642090000000053e+02,3.978817139999999881e+02,3.927156069999999772e+02,3.863295899999999961e+02,3.789895020000000159e+02,3.695954899999999839e+02,3.582225950000000125e+02,3.474378050000000258e+02,3.443797000000000139e+02,3.489577029999999809e+02,3.607575069999999755e+02,3.709909969999999930e+02,3.806181030000000192e+02,3.902807010000000218e+02,4.003240049999999997e+02,4.085892029999999977e+02,4.152648009999999772e+02,4.217916870000000245e+02,4.272161869999999908e+02,4.314299009999999726e+02,4.336777950000000033e+02,4.348969119999999862e+02,4.343929140000000189e+02,4.334935909999999808e+02,4.321314090000000192e+02,4.309291079999999852e+02,4.288776859999999829e+02,4.246773989999999799e+02,4.191059880000000248e+02,4.130317989999999782e+02,4.057432860000000119e+02,3.952744139999999788e+02,3.859815980000000195e+02,3.986624150000000100e+02,4.168091130000000248e+02,4.291077880000000278e+02,4.379761050000000182e+02,4.459278869999999984e+02,4.539128109999999765e+02,4.621285100000000057e+02,4.710299989999999752e+02,4.796007999999999925e+02,4.873326109999999858e+02,4.941189880000000016e+02,4.999328919999999812e+02,5.038962099999999964e+02,5.056711119999999937e+02,5.079406129999999848e+02,5.101872859999999719e+02,5.136934199999999464e+02,5.160222169999999551e+02,5.176823729999999841e+02,5.199401249999999663e+02,5.209180300000000443e+02,5.216478270000000066e+02,5.215363160000000562e+02,5.203720090000000482e+02,5.179816889999999603e+02,5.138027949999999464e+02,5.085358889999999974e+02,5.035465090000000146e+02,4.973461909999999762e+02,4.898671879999999987e+02,4.827146000000000186e+02,4.746734920000000102e+02,4.662573849999999993e+02,4.574305110000000241e+02,4.480325010000000248e+02,4.368937990000000013e+02,4.246466980000000149e+02,4.107724910000000023e+02,3.924230039999999917e+02,3.828601990000000228e+02,3.851895139999999742e+02,3.888128050000000258e+02,3.905942079999999805e+02,3.917424009999999726e+02,3.923211979999999812e+02,3.930788880000000063e+02,3.944739069999999970e+02,3.958623049999999921e+02,3.983146060000000261e+02,4.013164980000000241e+02,4.029961850000000254e+02,4.045173950000000218e+02,4.045429990000000089e+02,4.033905030000000238e+02,4.022575990000000274e+02,4.002716060000000198e+02,3.967742920000000026e+02,3.936615909999999872e+02,3.888620000000000232e+02,3.843316040000000271e+02,3.796838070000000016e+02,3.740657039999999824e+02,3.671763000000000261e+02,3.606541139999999928e+02,3.543082890000000020e+02,3.498492130000000202e+02,3.452799989999999752e+02,3.390643010000000004e+02,3.320257869999999798e+02,3.246426999999999907e+02,3.167896119999999769e+02,3.088406069999999772e+02,3.008099980000000073e+02,2.943562929999999938e+02,2.877551879999999755e+02,2.790888979999999719e+02,2.671247859999999719e+02,2.486551059999999893e+02,2.416838989999999967e+02,2.435482030000000009e+02,2.448995970000000000e+02,2.471930999999999869e+02,2.502810969999999884e+02,2.538016969999999901e+02,2.566474000000000046e+02,2.576228939999999739e+02,2.596727910000000179e+02,2.611929930000000013e+02,2.607112119999999891e+02,2.583693850000000225e+02,2.516374050000000011e+02,2.391215060000000108e+02,2.257149960000000135e+02,2.256365049999999997e+02,2.265870970000000000e+02,2.269185940000000130e+02,2.284548029999999983e+02,2.314662930000000074e+02,2.351385040000000117e+02,2.390081020000000080e+02,2.429929050000000075e+02,2.473824009999999873e+02,2.522984010000000126e+02,2.571557920000000195e+02,2.622746890000000235e+02,2.704649049999999875e+02,2.802883909999999901e+02,2.899602049999999736e+02,3.021134950000000003e+02,3.145846859999999765e+02,3.263258060000000000e+02,3.387575069999999755e+02,3.517254029999999716e+02,3.639236149999999839e+02,3.773557129999999802e+02,3.901163020000000188e+02,4.019917909999999779e+02,4.148768919999999980e+02,4.267945859999999811e+02,4.375539860000000090e+02,4.495058900000000222e+02,4.616788020000000188e+02,4.727210079999999834e+02,4.834128109999999765e+02,4.945006099999999947e+02,5.033305970000000116e+02,5.124199220000000423e+02,5.201101069999999709e+02,5.267540279999999484e+02,5.330014039999999795e+02,5.380114139999999452e+02,nan,nan,nan,nan,nan,nan
5.632814939999999524e+02,5.534824830000000020e+02,5.441539920000000166e+02,5.355927729999999656e+02,5.252432250000000522e+02,5.143728029999999762e+02,5.040880129999999895e+02,4.924968870000000152e+02,4.805982060000000047e+02,4.705939030000000116e+02,4.590982970000000023e+02,4.469559939999999756e+02,4.364093930000000228e+02,4.231065060000000244e+02,4.144861149999999839e+02,4.112633969999999977e+02,4.150669859999999858e+02,4.178234860000000026e+02,4.194500120000000152e+02,4.224053959999999961e+02,4.216358950000000050e+02,4.191195069999999987e+02,4.152250980000000027e+02,4.119103089999999838e+02,4.084006959999999822e+02,4.042164000000000215e+02,3.999194949999999835e+02,3.956470949999999789e+02,3.914400019999999927e+02,3.872586059999999861e+02,3.820900879999999802e+02,3.753976139999999759e+02,3.667929080000000113e+02,3.562838130000000092e+02,3.452641909999999825e+02,3.422348939999999970e+02,3.466849980000000073e+02,3.574162900000000036e+02,3.669700930000000199e+02,3.758241879999999924e+02,3.849332890000000020e+02,3.938086850000000254e+02,4.006064150000000268e+02,4.061520080000000235e+02,4.122137149999999792e+02,4.169862979999999766e+02,4.207697140000000218e+02,4.226701969999999733e+02,4.244559939999999756e+02,4.243682860000000119e+02,4.235869139999999788e+02,4.221662900000000036e+02,4.209866940000000000e+02,4.191769100000000208e+02,4.149845890000000281e+02,4.082091980000000149e+02,4.011496890000000235e+02,3.942554930000000013e+02,3.830371089999999867e+02,3.763319089999999960e+02,3.915761110000000258e+02,4.101482849999999871e+02,4.219338070000000016e+02,4.309930110000000241e+02,4.393590090000000146e+02,4.472243960000000129e+02,4.558707890000000020e+02,4.647893070000000080e+02,4.727300109999999904e+02,4.800523069999999848e+02,4.856115110000000072e+02,4.896080929999999967e+02,4.932739869999999769e+02,4.947865909999999872e+02,4.966253050000000258e+02,4.985473939999999970e+02,5.025640869999999722e+02,5.046527100000000132e+02,5.065686949999999911e+02,5.085714110000000119e+02,5.098772890000000189e+02,5.111831970000000069e+02,5.116852109999999811e+02,5.110060119999999984e+02,5.084859010000000126e+02,5.044690860000000043e+02,4.986278990000000135e+02,4.942518919999999980e+02,4.892976070000000277e+02,4.825765989999999874e+02,4.754902040000000056e+02,4.685754999999999768e+02,4.607991940000000000e+02,4.522009889999999928e+02,4.422553100000000086e+02,4.323602910000000179e+02,4.210441890000000171e+02,4.078301089999999931e+02,3.906184079999999881e+02,3.735166019999999776e+02,3.716332090000000221e+02,3.761051939999999831e+02,3.786737059999999815e+02,3.801191099999999778e+02,3.820674129999999877e+02,3.831260070000000155e+02,3.843341980000000149e+02,3.852833860000000072e+02,3.884812929999999938e+02,3.910845949999999789e+02,3.921317139999999881e+02,3.928742070000000126e+02,3.932525019999999927e+02,3.918806149999999775e+02,3.904165039999999749e+02,3.884137880000000109e+02,3.848454899999999839e+02,3.812796940000000063e+02,3.775014039999999795e+02,3.734685969999999884e+02,3.683512880000000109e+02,3.628192139999999881e+02,3.560567930000000274e+02,3.502290949999999725e+02,3.456292109999999980e+02,3.415000919999999951e+02,3.367473140000000171e+02,3.312814030000000116e+02,3.247626040000000103e+02,3.176860960000000205e+02,3.108280940000000214e+02,3.032809139999999957e+02,2.959699100000000271e+02,2.908713989999999967e+02,2.843689880000000016e+02,2.769035949999999957e+02,2.664162900000000036e+02,2.484279019999999889e+02,2.399658049999999889e+02,2.408990019999999959e+02,2.427857060000000047e+02,2.450482939999999985e+02,2.485751040000000103e+02,2.523444979999999873e+02,2.535446010000000001e+02,2.543601989999999944e+02,2.568172000000000139e+02,2.578800049999999828e+02,2.573082890000000020e+02,2.551192020000000014e+02,2.482245939999999962e+02,2.355346979999999917e+02,2.246676030000000139e+02,2.253793949999999882e+02,2.262754970000000014e+02,2.280657040000000109e+02,2.304288940000000139e+02,2.335769960000000083e+02,2.374698030000000131e+02,2.414244999999999948e+02,2.454989930000000129e+02,2.498164979999999957e+02,2.544761049999999898e+02,2.591185909999999808e+02,2.669407039999999824e+02,2.764967040000000225e+02,2.863147890000000189e+02,2.971615909999999872e+02,3.089515989999999874e+02,3.218778080000000159e+02,3.341658939999999802e+02,3.461888119999999844e+02,3.592442930000000274e+02,3.717460019999999759e+02,3.838464050000000043e+02,3.968970029999999838e+02,4.088819889999999759e+02,4.209717099999999732e+02,4.325253910000000133e+02,4.439468079999999759e+02,4.552744139999999788e+02,4.674552919999999858e+02,4.786466060000000198e+02,4.891066890000000171e+02,4.991621089999999867e+02,5.082607120000000123e+02,5.172622069999999894e+02,5.242725830000000542e+02,5.300969850000000179e+02,5.354182739999999967e+02,nan,nan,nan,nan,nan,nan,nan
5.610064700000000357e+02,5.516798710000000483e+02,5.426967160000000376e+02,5.340764769999999544e+02,5.244550779999999577e+02,5.147738040000000410e+02,5.052048950000000218e+02,4.948291929999999752e+02,4.832282099999999900e+02,4.733021850000000086e+02,4.631315920000000119e+02,4.526184999999999832e+02,4.424830929999999967e+02,4.302489009999999894e+02,4.164021000000000186e+02,4.056549069999999801e+02,4.045625919999999951e+02,4.052862850000000208e+02,4.077547910000000115e+02,4.111086119999999937e+02,4.115096130000000016e+02,4.098085940000000278e+02,4.069317019999999729e+02,4.036507869999999798e+02,4.009059139999999957e+02,3.968970029999999838e+02,3.925104979999999841e+02,3.887352910000000179e+02,3.849826049999999782e+02,3.814956970000000069e+02,3.773790890000000218e+02,3.716133120000000076e+02,3.639236149999999839e+02,3.546866150000000175e+02,3.441559139999999957e+02,3.404153140000000235e+02,3.440335999999999785e+02,3.532013850000000161e+02,3.620940860000000043e+02,3.707351070000000277e+02,3.787905880000000138e+02,3.864895940000000110e+02,3.926427919999999858e+02,3.973004149999999868e+02,4.028421020000000112e+02,4.076057129999999802e+02,4.113422850000000039e+02,4.133370059999999739e+02,4.146325990000000274e+02,4.153854059999999890e+02,4.147218930000000228e+02,4.136554869999999937e+02,4.122937009999999987e+02,4.105278020000000083e+02,4.068926999999999907e+02,3.995212099999999964e+02,3.913189090000000192e+02,3.847337039999999888e+02,3.739414059999999722e+02,3.704150999999999954e+02,3.867125849999999900e+02,4.046379089999999792e+02,4.168604129999999941e+02,4.255104059999999890e+02,4.341560969999999884e+02,4.424410100000000057e+02,4.503174129999999877e+02,4.588088070000000016e+02,4.669042049999999904e+02,4.731149899999999775e+02,4.777486880000000156e+02,4.808244930000000181e+02,4.838460999999999785e+02,4.851704100000000039e+02,4.866835019999999759e+02,4.887445979999999963e+02,4.921683959999999729e+02,4.951853939999999739e+02,4.973205869999999891e+02,4.989758909999999901e+02,5.006112059999999815e+02,5.026625060000000076e+02,5.034964899999999943e+02,5.026426999999999907e+02,4.996329959999999915e+02,4.949995119999999815e+02,4.898435969999999884e+02,4.865393980000000056e+02,4.821292109999999980e+02,4.763388059999999768e+02,4.699906920000000241e+02,4.627390139999999974e+02,4.553875120000000152e+02,4.468239140000000020e+02,4.374079899999999839e+02,4.277940060000000244e+02,4.174772029999999745e+02,4.054088130000000092e+02,3.902972110000000043e+02,3.722366030000000023e+02,3.628522029999999745e+02,3.657868040000000178e+02,3.692174069999999801e+02,3.715783079999999927e+02,3.741223140000000171e+02,3.752972110000000043e+02,3.763193049999999857e+02,3.771521000000000186e+02,3.795791019999999776e+02,3.826440119999999752e+02,3.834462889999999788e+02,3.838349910000000023e+02,3.838898929999999723e+02,3.829578859999999736e+02,3.811583860000000072e+02,3.789122009999999818e+02,3.757522890000000189e+02,3.722474980000000073e+02,3.683770139999999742e+02,3.642762149999999792e+02,3.588507079999999974e+02,3.532090150000000222e+02,3.471476139999999759e+02,3.420884090000000128e+02,3.380314940000000092e+02,3.340736999999999739e+02,3.291276859999999829e+02,3.238211059999999861e+02,3.176322020000000066e+02,3.109079899999999839e+02,3.047583010000000172e+02,2.978707890000000020e+02,2.913030089999999745e+02,2.865734860000000026e+02,2.803613889999999742e+02,2.739143980000000056e+02,2.652416989999999828e+02,2.481226959999999906e+02,2.387805020000000127e+02,2.387337039999999888e+02,2.407516019999999912e+02,2.433155059999999992e+02,2.469078979999999888e+02,2.504866940000000000e+02,2.507057949999999948e+02,2.514286040000000071e+02,2.542751010000000065e+02,2.552436979999999949e+02,2.543565979999999911e+02,2.521417999999999893e+02,2.453589939999999956e+02,2.313963929999999891e+02,2.242073059999999884e+02,2.250209959999999967e+02,2.263282010000000071e+02,2.288672939999999869e+02,2.317153930000000059e+02,2.351414029999999968e+02,2.391707000000000107e+02,2.433692929999999990e+02,2.474019010000000094e+02,2.517474060000000122e+02,2.561814880000000016e+02,2.611748959999999897e+02,2.711505129999999895e+02,2.816213989999999967e+02,2.913258969999999977e+02,3.032287900000000036e+02,3.150942989999999782e+02,3.279316099999999778e+02,3.409371029999999791e+02,3.531989140000000020e+02,3.659072879999999941e+02,3.788991090000000099e+02,3.902445069999999987e+02,4.030375980000000027e+02,4.155389099999999871e+02,4.270687869999999862e+02,4.383702999999999861e+02,4.505736999999999739e+02,4.609910889999999881e+02,4.729558109999999829e+02,4.844241940000000000e+02,4.942031860000000165e+02,5.034270940000000110e+02,5.130801999999999907e+02,5.213234250000000429e+02,5.276563109999999597e+02,5.328803709999999683e+02,5.369940189999999802e+02,nan,nan,nan,nan,nan,nan,nan
5.582222289999999703e+02,5.493126829999999927e+02,5.408920289999999795e+02,5.319915770000000066e+02,5.226411739999999782e+02,5.144210209999999961e+02,5.052007140000000049e+02,4.959533079999999927e+02,4.853671879999999987e+02,4.751290890000000218e+02,4.658640139999999974e+02,4.555722049999999967e+02,4.448602910000000179e+02,4.349054869999999937e+02,4.243357849999999871e+02,4.118883969999999977e+02,3.999270020000000159e+02,3.929765929999999798e+02,3.952620850000000132e+02,3.976171879999999987e+02,3.993479919999999765e+02,3.987268980000000056e+02,3.979254149999999868e+02,3.955697020000000066e+02,3.924634090000000128e+02,3.888114929999999845e+02,3.844395139999999742e+02,3.808196110000000090e+02,3.776235960000000205e+02,3.745003050000000258e+02,3.708033140000000003e+02,3.662997129999999970e+02,3.597004999999999768e+02,3.520032039999999824e+02,3.434465940000000046e+02,3.386734010000000126e+02,3.401614069999999970e+02,3.482810059999999908e+02,3.560864869999999769e+02,3.636907959999999775e+02,3.700754999999999768e+02,3.767157900000000268e+02,3.827752080000000205e+02,3.873290099999999825e+02,3.921520080000000235e+02,3.967110900000000129e+02,4.001834109999999782e+02,4.032658999999999878e+02,4.047019960000000083e+02,4.049684139999999957e+02,4.044096069999999941e+02,4.036577149999999961e+02,4.029129029999999716e+02,4.009106140000000096e+02,3.971435849999999732e+02,3.903891909999999825e+02,3.824341130000000248e+02,3.749870000000000232e+02,3.639036869999999908e+02,3.644382019999999898e+02,3.825278020000000083e+02,3.987539059999999722e+02,4.100252990000000182e+02,4.194237059999999815e+02,4.281983030000000099e+02,4.366312869999999862e+02,4.443554080000000113e+02,4.516716000000000122e+02,4.587099910000000023e+02,4.641665949999999725e+02,4.676740110000000072e+02,4.701705019999999990e+02,4.722466130000000248e+02,4.735918879999999831e+02,4.750026859999999829e+02,4.780976870000000076e+02,4.819808039999999778e+02,4.849804990000000089e+02,4.872330929999999967e+02,4.892464899999999943e+02,4.912037960000000112e+02,4.928320009999999911e+02,4.935676879999999755e+02,4.925046080000000188e+02,4.897538149999999746e+02,4.850364069999999970e+02,4.804039000000000215e+02,4.779999080000000049e+02,4.741904910000000086e+02,4.687395940000000110e+02,4.628967900000000100e+02,4.558392029999999977e+02,4.486111149999999839e+02,4.404454039999999964e+02,4.319732970000000023e+02,4.225837099999999964e+02,4.127992859999999951e+02,4.021030880000000138e+02,3.886931149999999775e+02,3.717224120000000198e+02,3.573646850000000086e+02,3.560187990000000013e+02,3.594017939999999953e+02,3.629150999999999954e+02,3.657615049999999997e+02,3.669999080000000049e+02,3.679439090000000192e+02,3.690078129999999987e+02,3.706306149999999775e+02,3.734659120000000030e+02,3.741712039999999888e+02,3.747143859999999904e+02,3.745551150000000007e+02,3.736953129999999987e+02,3.717867130000000202e+02,3.697088009999999940e+02,3.667279050000000211e+02,3.633898929999999723e+02,3.591683039999999778e+02,3.545166929999999752e+02,3.492077939999999785e+02,3.435795899999999961e+02,3.384007869999999798e+02,3.342291870000000245e+02,3.302828059999999937e+02,3.261516110000000026e+02,3.211932980000000271e+02,3.159059139999999957e+02,3.100234990000000153e+02,3.037058109999999829e+02,2.979693909999999732e+02,2.919078979999999888e+02,2.863623959999999897e+02,2.817294009999999957e+02,2.759520870000000059e+02,2.701213070000000016e+02,2.630622859999999719e+02,2.473099060000000122e+02,2.378193050000000142e+02,2.369127039999999909e+02,2.385989989999999921e+02,2.417718959999999981e+02,2.453054960000000051e+02,2.481968990000000019e+02,2.479837039999999888e+02,2.486802979999999934e+02,2.518486019999999996e+02,2.530897980000000018e+02,2.515581970000000069e+02,2.491663969999999892e+02,2.427310940000000130e+02,2.273217009999999902e+02,2.241244959999999935e+02,2.245240939999999910e+02,2.265101009999999917e+02,2.291569059999999922e+02,2.321997990000000129e+02,2.360639950000000056e+02,2.402395940000000110e+02,2.445621950000000027e+02,2.483538969999999892e+02,2.528180999999999869e+02,2.571702880000000278e+02,2.634211119999999937e+02,2.740956120000000169e+02,2.852396850000000086e+02,2.953168029999999931e+02,3.073826900000000251e+02,3.202041929999999752e+02,3.325006099999999947e+02,3.457456970000000069e+02,3.589580990000000043e+02,3.712121890000000235e+02,3.843335880000000202e+02,3.963252870000000030e+02,4.080591130000000248e+02,4.210329899999999839e+02,4.327178959999999961e+02,4.443662110000000212e+02,4.560693969999999808e+02,4.661658939999999802e+02,4.779984130000000278e+02,4.893745119999999815e+02,4.976929020000000037e+02,5.075710139999999910e+02,5.172194210000000112e+02,5.241173710000000483e+02,5.301375729999999749e+02,5.345490720000000238e+02,nan,nan,nan,nan,nan,nan,nan,nan
